ply
format ascii 1.0
comment VCGLIB generated
element vertex 1094
property float x
property float y
property float z
property uchar red
property uchar green
property uchar blue
property uchar alpha
element face 0
property list uchar int vertex_indices
end_header
1.038494 1.835 -0.4515543 255 226 127 255 
0.7292967 1.907 -0.2632812 255 226 127 255 
0.801428 2.241 -0.4348362 255 226 127 255 
-0.9982218 1.943 -0.4549719 229 127 255 255 
-1.448872 1.147 -0.5919552 229 127 255 255 
-1.518364 1.818 -0.5186349 229 127 255 255 
-1.3938 1.044 -0.3672954 229 127 255 255 
0.9611734 1.231 -0.2698472 255 226 127 255 
-1.47398 1.027 -0.5474619 229 127 255 255 
-1.208301 0.899 -0.4515461 229 127 255 255 
0.9069735 1.794 -0.7247485 255 226 127 255 
0.961494 1.188 -0.6363996 255 226 127 255 
0.9498355 1.182 -0.1638448 255 226 127 255 
-1.487168 0.902 -0.3657727 229 127 255 255 
0.933277 1.197 -0.3306978 255 226 127 255 
-1.497727 1.636 -0.1489537 229 127 255 255 
-1.208548 0.754 -0.159324 229 127 255 255 
0.8382002 0.324 -0.2474068 255 226 127 255 
0.7092745 1.326 -1.120717 255 226 127 255 
-1.355602 2.156 -0.09767705 229 127 255 255 
-1.109699 1.499 -0.6444395 229 127 255 255 
-1.237182 0.817 -0.1813486 229 127 255 255 
0.9705147 0.856 -0.1515013 255 226 127 255 
-1.457455 1.652 -0.3327555 229 127 255 255 
1.031924 1.267 -0.5286891 255 226 127 255 
0.9260745 1.615 -0.6673104 255 226 127 255 
-1.376669 1.944 -0.3308595 229 127 255 255 
0.8571271 1.466 -0.6551758 255 226 127 255 
-1.074154 1.348 -0.4954613 229 127 255 255 
0.8644012 2.022 -0.5690128 255 226 127 255 
0.7378956 1.762 -0.6344671 255 226 127 255 
-1.225487 1.671 -0.3495189 229 127 255 255 
-1.004798 1.829 -0.5534847 229 127 255 255 
-1.279838 0.738 -0.501018 229 127 255 255 
-1.048036 1.8 -0.6093723 229 127 255 255 
-1.277169 0.779 -0.4923649 229 127 255 255 
0.9683335 1.296 -0.2589965 255 226 127 255 
0.8293654 0.582 -0.2243429 255 226 127 255 
0.847455 1.702 -0.2736047 255 226 127 255 
-1.468442 2.104 -0.310299 229 127 255 255 
-1.268857 0.986 -0.5448524 229 127 255 255 
-1.30028 1.662 -0.6722198 229 127 255 255 
-1.405277 1.102 -0.598235 229 127 255 255 
-1.044856 1.384 -0.6140512 229 127 255 255 
-1.570535 1.726 -0.05565831 229 127 255 255 
0.8800548 1.168 -0.6310448 255 226 127 255 
0.7829987 1.722 -0.9423727 255 226 127 255 
0.8127705 1.746 -0.6955798 255 226 127 255 
0.7843484 1.563 -1.138093 255 226 127 255 
0.9198661 1.85 -0.2782557 255 226 127 255 
0.8531671 1.825 -0.9374337 255 226 127 255 
0.8319097 1.319 -0.1576381 255 226 127 255 
1.018582 1.699 -0.3958361 255 226 127 255 
-1.294247 1.879 -0.3364022 229 127 255 255 
-1.543551 1.832 -0.4211889 229 127 255 255 
0.8483977 1.844 -0.2473161 255 226 127 255 
0.9079806 2.655 -0.4633063 255 63 63 255 
-1.333562 2.112 -0.4144173 229 127 255 255 
0.8817984 2.01 -0.5845479 255 226 127 255 
0.9600873 2.112 -0.4783365 255 226 127 255 
-1.082899 1.424 -0.6587139 229 127 255 255 
2.073611 1.629 1.468494 255 63 63 255 
-1.2638 1.754 -0.6944498 229 127 255 255 
1.039374 1.822 -0.4842988 255 226 127 255 
-1.303125 1.296 -0.6391007 229 127 255 255 
-1.259774 1.465 -0.6840191 229 127 255 255 
0.8808982 0.518 -0.2850746 255 226 127 255 
-1.192876 1.654 -0.6642036 229 127 255 255 
0.6639415 1.744 -0.4564567 255 226 127 255 
0.7185851 1.645 -0.6022787 255 226 127 255 
-1.344277 1.972 -0.4225535 229 127 255 255 
-1.27601 1.574 -0.3582059 229 127 255 255 
-1.365419 1.818 -0.07442576 229 127 255 255 
0.9630356 1.249 -0.3027795 255 226 127 255 
-1.465635 1.609 -0.1408232 229 127 255 255 
0.9537529 1.324 -0.2073498 255 226 127 255 
-1.499644 1.888 -0.4845387 229 127 255 255 
0.6938025 1.452 -0.3959808 255 226 127 255 
-1.43997 1.8 -0.02762724 229 127 255 255 
0.7908908 1.994 -0.308626 255 226 127 255 
0.9786645 1.18 -0.6264406 255 226 127 255 
1.005657 1.449 -0.6183553 255 226 127 255 
0.9798793 1.443 -0.6307446 255 226 127 255 
0.7347803 1.337 -0.3946357 255 226 127 255 
-1.510583 1.707 -0.2910616 229 127 255 255 
0.6791589 1.773 -0.403368 255 226 127 255 
-1.315779 1.359 -0.3852326 229 127 255 255 
-1.374994 1.043 -0.3647741 229 127 255 255 
-1.577577 1.731 -0.1459377 229 127 255 255 
-1.368711 1.622 -0.6520398 229 127 255 255 
0.9979821 1.958 -0.4611324 255 226 127 255 
-1.351672 2.03 -0.09842658 229 127 255 255 
0.8660278 0.924 -0.2669675 255 226 127 255 
-1.425404 1.631 -0.4742677 229 127 255 255 
-1.522838 2.158 -0.4566992 229 127 255 255 
0.7327806 1.371 -0.5225261 255 226 127 255 
0.7633955 1.488 -0.6128631 255 226 127 255 
-1.655728 1.905 -0.09132672 229 127 255 255 
-1.31576 1.636 -0.1449806 229 127 255 255 
-1.080728 1.319 -0.4178545 229 127 255 255 
-1.252426 1.743 -0.6721864 229 127 255 255 
0.8020824 1.666 -0.2659678 255 226 127 255 
-1.282939 1.907 -0.5492923 229 127 255 255 
-1.384499 0.513 -0.3985918 229 127 255 255 
-1.386571 0.686 -0.2760329 229 127 255 255 
-1.230194 0.606 -0.2834669 229 127 255 255 
-1.361134 1.188 -0.3134629 229 127 255 255 
-1.300629 1.854 -0.2364357 229 127 255 255 
-1.450837 1.143 -0.5915804 229 127 255 255 
-1.341374 1.685 -0.2418975 229 127 255 255 
-1.55104 1.096 -0.4391028 229 127 255 255 
-1.121447 1.634 -0.6686672 229 127 255 255 
-1.143445 0.839 -0.2022843 229 127 255 255 
0.7788545 1.219 -0.1902744 255 226 127 255 
0.8315055 0.96 -0.2664903 255 226 127 255 
-1.143116 0.509 -0.1952205 229 127 255 255 
-1.430933 0.857 -0.3378148 229 127 255 255 
-1.133471 1.937 -0.5075603 229 127 255 255 
-1.462675 1.901 0.07748919 229 127 255 255 
0.9601295 1.814 -0.8356737 255 226 127 255 
0.8534995 2.005 -0.5781316 255 226 127 255 
0.8936839 2.161 -0.3994973 255 226 127 255 
-1.3936 2.077 -0.3235578 229 127 255 255 
0.8574417 1.703 -1.043106 255 226 127 255 
0.9680288 1.813 -0.68753 255 226 127 255 
-1.465769 1.291 -0.4563877 229 127 255 255 
0.8823502 1.181 -0.4482371 255 226 127 255 
-1.427979 1.7 -0.1408799 229 127 255 255 
0.9323416 1.786 -0.1594898 255 226 127 255 
-1.173281 1.571 -0.6842297 229 127 255 255 
-0.9109461 2.133 -0.4991075 229 127 255 255 
-1.294385 0.85 -0.497225 229 127 255 255 
0.8029462 1.031 -0.186726 255 226 127 255 
0.8639328 0.689 -0.2299185 255 226 127 255 
0.8317897 1.811 -0.254328 255 226 127 255 
0.9317881 1.14 -0.4719202 255 226 127 255 
-1.084637 1.077 -0.6838333 229 127 255 255 
-1.334889 1.911 -0.8162864 229 127 255 255 
0.8566543 1.355 -0.16134 255 226 127 255 
-1.348223 0.686 -0.4859368 229 127 255 255 
-1.53902 0.932 -0.4454681 229 127 255 255 
-1.434944 1.732 -0.6363508 229 127 255 255 
0.7711365 1.552 -1.041913 255 226 127 255 
0.9531643 1.615 -0.6480451 255 226 127 255 
-1.295962 1.803 -0.2760113 229 127 255 255 
0.6729811 1.531 -0.4144055 255 226 127 255 
-1.334161 1.846 -0.03864925 229 127 255 255 
0.7504853 2.004 -0.4403887 255 226 127 255 
0.9812187 1.902 -0.6931 255 226 127 255 
0.9960219 1.552 -0.6154993 255 226 127 255 
-1.21985 1.757 -0.4320368 229 127 255 255 
0.7677184 1.569 -1.054495 255 226 127 255 
0.9370408 2.652 -0.4230384 255 63 63 255 
0.9681139 1.902 -0.7191054 255 226 127 255 
1.002047 1.243 -0.4771783 255 226 127 255 
-1.534467 1.689 0.1227434 229 127 255 255 
0.73808 1.72 -0.3026241 255 226 127 255 
0.9406917 2.092 -0.4145727 255 226 127 255 
-1.288535 1.035 -0.3171312 229 127 255 255 
-1.485094 1.624 -0.1360929 229 127 255 255 
0.7512816 1.629 -0.2654392 255 226 127 255 
-1.002732 1.142 -0.6974211 229 127 255 255 
-1.500875 0.934 -0.3682483 229 127 255 255 
-1.051011 1.213 -0.5395789 229 127 255 255 
-1.520165 1.579 0.08031173 229 127 255 255 
-1.333892 1.392 -0.4214806 229 127 255 255 
0.7043749 1.874 -0.3939258 255 226 127 255 
-1.450875 2.147 -0.3889844 229 127 255 255 
-1.092215 1.876 -0.5154303 229 127 255 255 
0.845584 1.189 -0.6142886 255 226 127 255 
-1.25507 0.591 -0.4192099 229 127 255 255 
-1.092423 1.068 -0.2496841 229 127 255 255 
2.066735 1.666 1.469806 255 63 63 255 
-1.341159 1.164 -0.3101471 229 127 255 255 
0.8821132 0.488 -0.2893787 255 226 127 255 
0.858134 1.542 -1.076833 255 226 127 255 
-1.395905 2.03 -0.8799818 229 127 255 255 
0.9281387 1.07 -0.3042668 255 226 127 255 
-1.358872 1.815 -0.08280079 229 127 255 255 
-1.073761 1.307 -0.4293635 229 127 255 255 
-1.298168 1.254 -0.645136 229 127 255 255 
-1.230085 1.096 -0.2295319 229 127 255 255 
0.8235331 1.753 -1.023403 255 226 127 255 
-1.229976 1.572 -0.6825768 229 127 255 255 
-1.096944 2.262 -0.3587695 229 127 255 255 
0.851494 1.772 -0.7273996 255 226 127 255 
-1.444048 1.718 -0.2304555 229 127 255 255 
-1.527398 2.17 -0.5393082 229 127 255 255 
0.9261374 1.104 -0.6082764 255 226 127 255 
-1.287014 1.953 -0.3998818 229 127 255 255 
-1.012742 0.88 -0.6965299 229 127 255 255 
0.9579016 2.089 -0.4310901 255 226 127 255 
-1.685382 1.666 0.08943211 229 127 255 255 
-1.248636 0.606 -0.3267783 229 127 255 255 
0.6866995 1.704 -0.369175 255 226 127 255 
-1.31759 0.924 -0.3360218 229 127 255 255 
-1.267063 0.566 -0.4820764 229 127 255 255 
-1.52227 0.903 -0.4323746 229 127 255 255 
-1.230532 1.567 -0.6641465 229 127 255 255 
0.7127366 1.683 -0.6062533 255 226 127 255 
0.7311864 1.356 -0.3654453 255 226 127 255 
0.7605453 1.89 -0.6011209 255 226 127 255 
0.8872691 0.849 -0.2516769 255 226 127 255 
-1.269362 0.936 -0.5101424 229 127 255 255 
-1.256374 1.072 -0.2285893 229 127 255 255 
-1.513646 2.16 -0.5419315 229 127 255 255 
-1.032643 1.797 -0.5980563 229 127 255 255 
0.7986392 2.089 -0.5401797 255 226 127 255 
0.8337176 2.043 -0.5590877 255 226 127 255 
0.8486481 1.864 -0.8703991 255 226 127 255 
0.7994547 1.85 -0.8080772 255 226 127 255 
-0.9483066 2.118 -0.4441332 229 127 255 255 
-1.388985 1.91 -0.3794119 229 127 255 255 
0.7905424 2.216 -0.5559413 255 226 127 255 
-1.5159 1.762 0.108003 229 127 255 255 
-1.673202 1.654 0.1532804 229 127 255 255 
-1.464947 1.813 -0.01980821 229 127 255 255 
-1.199601 0.699 -0.2831946 229 127 255 255 
0.8247833 1.935 -0.2163426 255 226 127 255 
0.8754129 1.069 -0.3298397 255 226 127 255 
-1.092472 1.567 -0.5968239 229 127 255 255 
-1.235042 0.977 -0.223496 229 127 255 255 
0.8532814 1.866 -0.8621207 255 226 127 255 
-1.389288 1.551 -0.6318262 229 127 255 255 
-1.165159 0.92 -0.4068381 229 127 255 255 
-1.410563 1.226 -0.599263 229 127 255 255 
0.950784 0.738 -0.1161783 255 226 127 255 
-1.314136 1.698 -0.1951737 229 127 255 255 
0.8244262 1.028 -0.1541741 255 226 127 255 
-1.294452 1.744 -0.4015168 229 127 255 255 
-1.42611 1.69 -0.6594151 229 127 255 255 
-0.9848504 2.137 -0.4809377 229 127 255 255 
-1.396356 0.749 -0.4767551 229 127 255 255 
0.7978474 1.116 -0.1867713 255 226 127 255 
0.789181 1.262 -0.4029767 255 226 127 255 
0.8086669 1.338 -1.160038 255 226 127 255 
0.9378064 2.143 -0.5310958 255 226 127 255 
-1.089289 0.858 -0.249264 229 127 255 255 
0.9525305 1.27 -0.4005423 255 226 127 255 
-1.389563 0.656 -0.2703723 229 127 255 255 
-1.2826 1.666 -0.1686123 229 127 255 255 
-1.028087 2.211 -0.3607061 229 127 255 255 
-1.227462 0.908 -0.2157799 229 127 255 255 
-1.42559 0.67 -0.2991308 229 127 255 255 
-1.215001 0.923 -0.4920076 229 127 255 255 
-1.357464 2.144 -0.06474475 229 127 255 255 
0.9448873 1.163 -0.4672928 255 226 127 255 
0.7868754 2.259 -0.4524207 255 226 127 255 
0.6836839 1.494 -0.4490243 255 226 127 255 
-1.685473 1.647 0.09962949 229 127 255 255 
-1.39753 0.864 -0.3228083 229 127 255 255 
-1.390257 2.163 -0.4127643 229 127 255 255 
-1.439322 1.592 -0.5632359 229 127 255 255 
-1.355171 0.63 -0.2341753 229 127 255 255 
-1.16222 1.052 -0.6048973 229 127 255 255 
0.7542781 1.572 -1.108941 255 226 127 255 
-1.368393 1.715 -0.6877313 229 127 255 255 
-1.361844 1.273 -0.3438681 229 127 255 255 
-1.295401 2.049 -0.4491833 229 127 255 255 
-1.139971 0.839 -0.3281646 229 127 255 255 
2.022021 1.857 1.49157 255 63 63 255 
-1.176837 0.424 -0.1745354 229 127 255 255 
-1.501387 1.724 -1.897235 229 127 255 255 
-1.420876 1.988 -0.1676857 229 127 255 255 
-1.274101 0.837 -0.2201175 229 127 255 255 
-1.265391 1.771 -0.1851297 229 127 255 255 
-1.053862 1.142 -0.7039562 229 127 255 255 
-1.208141 1.491 -0.3813326 229 127 255 255 
-1.235105 1.603 -0.28253 229 127 255 255 
1.096228 1.422 -0.4157382 255 226 127 255 
0.8418394 1.001 -0.281696 255 226 127 255 
-1.446048 1.652 -0.358346 229 127 255 255 
-1.177534 1.407 -0.6691661 229 127 255 255 
-1.080762 2.195 -0.3700006 229 127 255 255 
-1.178516 1.398 -0.6689788 229 127 255 255 
-1.256048 1.839 -0.5737642 229 127 255 255 
-1.444659 1.581 -0.5805424 229 127 255 255 
0.9542302 1.197 -0.1728273 255 226 127 255 
0.8252021 2.104 -0.3955958 255 226 127 255 
-1.562134 1.981 -0.2944623 229 127 255 255 
-1.0604 1.057 -0.321965 229 127 255 255 
0.7777843 2.263 -0.5107505 255 226 127 255 
0.8199055 0.331 -0.2632595 255 226 127 255 
0.9628818 1.295 -0.3516156 255 226 127 255 
0.8616813 2.192 -0.5939448 255 226 127 255 
0.6776935 1.83 -0.45908 255 226 127 255 
-1.153688 0.951 -0.197276 229 127 255 255 
-1.396436 1.257 -0.5999215 229 127 255 255 
-1.473457 2.186 -0.5180389 229 127 255 255 
0.9645859 1.126 -0.2786423 255 226 127 255 
0.7265707 1.738 -0.3095907 255 226 127 255 
-1.340807 2.106 -0.3936926 229 127 255 255 
-1.490651 1.771 0.06959136 229 127 255 255 
-0.8886769 2.132 -0.4891031 229 127 255 255 
-1.441053 1.577 -0.5669778 229 127 255 255 
-1.011441 1.722 -0.5562893 229 127 255 255 
0.6914016 1.491 -0.2804853 255 226 127 255 
0.9711821 2.056 -0.4468579 255 226 127 255 
0.7950058 2.317 -0.4845124 255 226 127 255 
0.8850557 1.125 -0.1351991 255 226 127 255 
1.017967 1.756 -0.5911809 255 226 127 255 
0.9527472 1.115 -0.2926723 255 226 127 255 
0.8721176 2.153 -0.5765929 255 226 127 255 
0.9433765 2.063 -0.517906 255 226 127 255 
0.8434715 1.298 -0.6413729 255 226 127 255 
-1.293028 0.775 -0.4954475 229 127 255 255 
0.7053279 1.438 -0.5010005 255 226 127 255 
-0.9895802 2.079 -0.5003955 229 127 255 255 
-1.284378 1.793 -0.1672553 229 127 255 255 
-1.266708 0.538 -0.2133836 229 127 255 255 
-1.337259 1.378 -0.417784 229 127 255 255 
-1.066942 1.123 -0.4683316 229 127 255 255 
0.8876979 2.332 -0.5642947 255 226 127 255 
0.6958168 1.806 -0.5561962 255 226 127 255 
-1.09259 1.666 -0.5173947 229 127 255 255 
-1.495783 1.148 -0.5656996 229 127 255 255 
0.8852181 2.245 -0.3958464 255 226 127 255 
-1.430178 0.679 -0.312508 229 127 255 255 
-1.457795 2.066 -0.8895542 229 127 255 255 
-1.201812 1.784 -0.4975781 229 127 255 255 
0.9244541 1.984 -0.2648785 255 226 127 255 
0.8707854 1.054 -0.3167405 255 226 127 255 
0.914943 1.09 -0.3200742 255 226 127 255 
0.7894297 1.351 -1.20218 255 226 127 255 
-1.30981 0.581 -0.284568 229 127 255 255 
-1.533462 1.796 -0.4750337 229 127 255 255 
-1.352741 1.678 -0.2427835 229 127 255 255 
-1.113613 2.145 -0.2486962 229 127 255 255 
-1.528743 1.83 -0.4983298 229 127 255 255 
-1.285022 2.042 -0.4694884 229 127 255 255 
0.9692674 1.119 -0.6063238 255 226 127 255 
-1.269777 0.644 -0.4856306 229 127 255 255 
-1.413337 1.096 -0.3096123 229 127 255 255 
-1.382235 2.281 -0.4987915 229 127 255 255 
1.015562 1.376 -0.3209437 255 226 127 255 
-1.073442 2.28 -0.2889359 229 127 255 255 
0.6939678 1.451 -0.3043893 255 226 127 255 
0.9478754 1.213 -0.3182118 255 226 127 255 
0.961333 0.787 -0.1996332 255 226 127 255 
-1.262545 1.793 -0.7252298 229 127 255 255 
-1.401924 0.822 -0.3138253 229 127 255 255 
-1.058715 1.868 -0.4892437 229 127 255 255 
-1.600903 1.865 -0.257544 229 127 255 255 
-1.595596 1.709 0.1598552 229 127 255 255 
1.071097 1.517 -0.4567552 255 226 127 255 
-1.313701 1.983 -0.486414 229 127 255 255 
0.7891604 1.82 -0.8193483 255 226 127 255 
-1.497576 1.242 -0.4523559 229 127 255 255 
-1.248026 1.743 -0.6597914 229 127 255 255 
-1.276972 1.823 -0.6247469 229 127 255 255 
-1.474911 1.253 -0.5309959 229 127 255 255 
-1.103086 0.594 -0.2415418 229 127 255 255 
0.7893405 2.011 -0.3327632 255 226 127 255 
-1.115194 1.796 -0.5558399 229 127 255 255 
0.7978957 1.225 -0.5227311 255 226 127 255 
-1.288439 0.585 -0.3059511 229 127 255 255 
0.9403024 0.912 -0.1284312 255 226 127 255 
-1.426294 0.595 -0.3081591 229 127 255 255 
-1.339761 1.649 -0.1587269 229 127 255 255 
0.8040864 1.102 -0.292819 255 226 127 255 
0.8193463 2.21 -0.5970675 255 226 127 255 
0.9730399 1.314 -0.3250486 255 226 127 255 
0.9620254 1.187 -0.2333603 255 226 127 255 
-1.455776 1.3 -0.5214117 229 127 255 255 
0.9722801 0.855 -0.1956132 255 226 127 255 
0.8370334 2.318 -0.5790624 255 226 127 255 
-1.367553 2.201 -0.01090035 229 127 255 255 
0.9440589 2.665 -0.4182689 255 63 63 255 
-1.360191 0.533 -0.2871734 229 127 255 255 
0.7785764 1.903 -0.1810593 255 226 127 255 
0.9709889 2.031 -0.4692176 255 226 127 255 
0.8332038 1.934 -0.2148945 255 226 127 255 
0.9996333 1.954 -0.5805572 255 226 127 255 
-1.564296 1.8 -0.1617055 229 127 255 255 
-1.309078 1.317 -0.3447716 229 127 255 255 
-1.541781 1.568 0.06305666 229 127 255 255 
-1.525138 0.966 -0.4847653 229 127 255 255 
0.8932493 0.796 -0.1082569 255 226 127 255 
-1.32618 0.81 -0.2743191 229 127 255 255 
-1.48759 2.157 -0.5387579 229 127 255 255 
0.8560833 1.121 -0.5379032 255 226 127 255 
-1.38199 1.515 -0.4601528 229 127 255 255 
-1.084894 1.077 -0.2582465 229 127 255 255 
-1.243463 0.985 -0.2249441 229 127 255 255 
0.9681972 1.017 -0.2437003 255 226 127 255 
-1.322974 1.879 -0.5243485 229 127 255 255 
-1.089143 1.312 -0.3979246 229 127 255 255 
-1.079904 0.964 -0.3121363 229 127 255 255 
0.7870597 1.813 -0.8036768 255 226 127 255 
0.7768929 2.248 -0.5207605 255 226 127 255 
0.8380244 0.478 -0.205634 255 226 127 255 
0.7421116 1.921 -0.2708161 255 226 127 255 
0.8297168 1.084 -0.3078883 255 226 127 255 
-1.33132 2.102 -0.4240072 229 127 255 255 
-1.269225 0.526 -0.3493197 229 127 255 255 
-1.113483 1.542 -0.28537 229 127 255 255 
1.018711 1.226 -0.6086295 255 226 127 255 
0.7706858 1.866 -0.6386863 255 226 127 255 
0.8544116 0.715 -0.15175 255 226 127 255 
-1.550932 1.92 -0.3851683 229 127 255 255 
-1.350943 0.815 -0.5108684 229 127 255 255 
0.7300359 1.828 -0.1259882 255 226 127 255 
0.893927 2.336 -0.5369777 255 226 127 255 
0.8023076 1.327 -1.150681 255 226 127 255 
0.9224998 2.083 -0.397868 255 226 127 255 
0.7860671 1.87 -0.6701252 255 226 127 255 
-1.340302 1.893 -0.4284019 229 127 255 255 
0.9797958 2.757 -0.4230502 255 63 63 255 
0.6694092 1.81 -0.4758244 255 226 127 255 
0.8459047 1.043 -0.2977419 255 226 127 255 
-1.069522 0.958 -0.6633016 229 127 255 255 
0.960462 2.172 -0.4763721 255 226 127 255 
-1.332094 2.123 -0.006466474 229 127 255 255 
-1.263852 1.789 -0.2037479 229 127 255 255 
-1.490757 0.94 -0.4913236 229 127 255 255 
-1.000767 1.046 -0.6977959 229 127 255 255 
-1.427811 1.254 -0.3801496 229 127 255 255 
-1.413347 1.974 -0.1762481 229 127 255 255 
0.8935186 2.707 -0.4910887 255 63 63 255 
-1.555842 1.849 -0.2081118 229 127 255 255 
-1.55708 1.856 -0.289318 229 127 255 255 
0.8024689 1.564 -0.221248 255 226 127 255 
-1.119431 1.529 -0.652763 229 127 255 255 
-1.496339 1.185 -0.5472688 229 127 255 255 
-1.45022 2.078 -0.9032156 229 127 255 255 
-1.324735 1.378 -0.6349783 229 127 255 255 
-1.192101 1.533 -0.3986448 229 127 255 255 
-1.247313 0.603 -0.2771474 229 127 255 255 
-1.530878 1.145 -0.4348054 229 127 255 255 
-1.332251 2.112 -0.4075413 229 127 255 255 
0.8288093 0.757 -0.205912 255 226 127 255 
0.9119728 1.21 -0.4050219 255 226 127 255 
-1.061782 1.406 -0.5853715 229 127 255 255 
0.8279001 1.985 -0.2800549 255 226 127 255 
-1.087021 1.211 -0.6803246 229 127 255 255 
0.8577081 1.578 -1.095077 255 226 127 255 
0.8197358 0.59 -0.2001089 255 226 127 255 
-1.221864 1.227 -0.2718214 229 127 255 255 
0.7304296 1.876 -0.5668713 255 226 127 255 
-1.063319 1.174 -0.3906342 229 127 255 255 
-1.631078 1.59 0.0699105 229 127 255 255 
0.8662252 1.594 -1.082449 255 226 127 255 
0.9206655 2.716 -0.434167 255 63 63 255 
0.9336444 2.073 -0.52623 255 226 127 255 
-1.198239 1.619 -0.4361592 229 127 255 255 
-1.417101 2.083 -0.2172718 229 127 255 255 
-1.112461 1.235 -0.3120338 229 127 255 255 
1.023583 1.202 -0.5830899 255 226 127 255 
-1.188636 1.053 -0.2150422 229 127 255 255 
1.01358 1.889 -0.3847013 255 226 127 255 
1.00442 1.138 -0.5234424 255 226 127 255 
-1.311403 1.804 -0.6344671 229 127 255 255 
0.9779894 2.25 -0.528581 255 226 127 255 
-1.40277 1.63 -0.3289347 229 127 255 255 
-1.394918 1.241 -0.3518113 229 127 255 255 
-1.195083 0.968 -0.5263479 229 127 255 255 
0.8671345 1.586 -1.008306 255 226 127 255 
-1.406395 1.31 -0.5827513 229 127 255 255 
-1.123215 0.781 -0.2936941 229 127 255 255 
-1.44531 2.181 -0.3971721 229 127 255 255 
0.969878 1.332 -0.2562369 255 226 127 255 
-0.9342545 2.13 -0.5465809 229 127 255 255 
-1.151236 1.552 -0.296493 229 127 255 255 
-1.577871 1.623 -0.02473576 229 127 255 255 
-1.096139 1.958 -0.4933033 229 127 255 255 
0.6770978 1.79 -0.4141728 255 226 127 255 
-1.071214 1.234 -0.69352 229 127 255 255 
0.9841453 2.757 -0.4269337 255 63 63 255 
0.9837117 1.252 -0.6426743 255 226 127 255 
0.7073904 1.703 -0.3140765 255 226 127 255 
-1.47801 1.229 -0.4031507 229 127 255 255 
-1.486493 0.893 -0.4636323 229 127 255 255 
-1.54531 1.875 -0.3556995 229 127 255 255 
-1.494738 2.227 -0.5068531 229 127 255 255 
0.7580141 1.498 -1.132051 255 226 127 255 
0.8406917 1.702 -1.056199 255 226 127 255 
-1.415126 1.041 -0.3510108 229 127 255 255 
-1.270495 1.783 -0.2065529 229 127 255 255 
-1.364268 1.115 -0.3138825 229 127 255 255 
-1.097531 1.511 -0.6233456 229 127 255 255 
0.8112816 1.212 -0.1537031 255 226 127 255 
0.6809975 1.583 -0.5218102 255 226 127 255 
1.024015 1.657 -0.5434691 255 226 127 255 
-1.323493 1.779 -0.2015333 229 127 255 255 
0.6648785 1.734 -0.4515451 255 226 127 255 
1.051543 1.565 -0.4632054 255 226 127 255 
-1.085288 1.768 -0.5004634 229 127 255 255 
0.8087578 1.303 -1.170235 255 226 127 255 
0.7402803 1.739 -0.6379764 255 226 127 255 
-1.598222 1.926 -0.2061355 229 127 255 255 
-1.079296 1.171 -0.314288 229 127 255 255 
0.6573393 1.574 -0.3096185 255 226 127 255 
-1.502252 1.727 -0.103297 229 127 255 255 
-1.175096 1.763 -0.4802772 229 127 255 255 
-1.381763 0.765 -0.4856465 229 127 255 255 
-1.218979 0.269 -0.1552984 229 127 255 255 
-1.103123 1.589 -0.5459262 229 127 255 255 
-1.426748 1.698 -0.2571707 229 127 255 255 
-1.220015 0.963 -0.5236278 229 127 255 255 
0.9520415 1.141 -0.4778197 255 226 127 255 
-1.533114 2.182 -0.403837 229 127 255 255 
-1.252589 0.801 -0.4115391 229 127 255 255 
0.827427 1.457 -1.152418 255 226 127 255 
-1.680851 1.669 0.06515283 229 127 255 255 
-1.140951 1.71 -0.658838 229 127 255 255 
0.6580536 1.609 -0.433955 255 226 127 255 
-1.074397 2.226 -0.3579803 229 127 255 255 
-1.106292 1.305 -0.674612 229 127 255 255 
-1.023881 1.768 -0.5467899 229 127 255 255 
0.9008586 1.65 -0.6767525 255 226 127 255 
-1.068948 1.782 -0.6175996 229 127 255 255 
0.8654054 1.509 -0.6598094 255 226 127 255 
-1.266986 0.621 -0.2041679 229 127 255 255 
0.734603 1.356 -1.212082 255 226 127 255 
-1.491249 2.024 -0.2377402 229 127 255 255 
0.8317413 2.208 -0.6014678 255 226 127 255 
0.7894648 1.259 -0.3908149 255 226 127 255 
0.8494869 1.182 -0.3696876 255 226 127 255 
-1.347532 2.207 -0.01268355 229 127 255 255 
1.070421 1.444 -0.5350148 255 226 127 255 
-1.214487 0.267 -0.1531008 229 127 255 255 
0.8993274 2.745 -0.4606377 255 63 63 255 
0.7700081 1.327 -0.2099655 255 226 127 255 
-1.154177 0.709 -0.2745534 229 127 255 255 
1.034321 1.617 -0.4894429 255 226 127 255 
0.7731423 1.231 -0.2095454 255 226 127 255 
-1.440645 1.632 -0.6128673 229 127 255 255 
-1.287622 1.446 -0.39773 229 127 255 255 
-1.303501 1.887 -0.1340847 229 127 255 255 
-1.064789 1.025 -0.2916051 229 127 255 255 
-1.443103 1.412 -0.5350277 229 127 255 255 
-1.248904 0.713 -0.4509268 229 127 255 255 
0.865145 2.004 -0.5864614 255 226 127 255 
0.8157144 1.732 -1.048381 255 226 127 255 
0.9726212 0.756 -0.145795 255 226 127 255 
-1.284937 0.82 -0.5010632 229 127 255 255 
-1.260756 1.486 -0.6838318 229 127 255 255 
1.003278 1.168 -0.5934691 255 226 127 255 
-1.559273 1.734 -1.805768 229 127 255 255 
-0.999598 0.937 -0.6970015 229 127 255 255 
-1.289886 1.798 -0.2975308 229 127 255 255 
1.028183 1.843 -0.5269574 255 226 127 255 
0.9543662 0.695 -0.1881241 255 226 127 255 
0.9340618 1.364 -0.1985032 255 226 127 255 
1.060359 1.473 -0.5504022 255 226 127 255 
-1.514332 2.122 -0.4868265 229 127 255 255 
-1.286525 1.828 -0.3226049 229 127 255 255 
0.668484 1.741 -0.4379805 255 226 127 255 
-1.116396 2.268 -0.3326617 229 127 255 255 
-1.303337 0.662 -0.2186128 229 127 255 255 
-1.37304 1.677 -0.2317846 229 127 255 255 
0.8926125 1.954 -0.2129929 255 226 127 255 
-1.078021 1.629 -0.6117969 229 127 255 255 
-1.140064 1.963 -0.4940863 229 127 255 255 
-0.8585438 2.127 -0.4592204 229 127 255 255 
0.736739 1.332 -0.4163879 255 226 127 255 
-1.165606 0.608 -0.1583536 229 127 255 255 
0.8624718 1.217 -0.4403727 255 226 127 255 
-1.476585 2.003 -0.4970814 229 127 255 255 
-1.173391 1.12 -0.2311848 229 127 255 255 
0.9537206 1.751 -0.6664758 255 226 127 255 
0.9674112 1.995 -0.552014 255 226 127 255 
-1.068554 1.215 -0.3753832 229 127 255 255 
0.7353996 1.922 -0.3540326 255 226 127 255 
-1.362596 1.789 -0.7000358 229 127 255 255 
-1.424378 1.683 -0.6556731 229 127 255 255 
-1.024921 1.768 -0.5842591 229 127 255 255 
0.804186 1.932 -0.6124997 255 226 127 255 
0.9447877 0.685 -0.1476116 255 226 127 255 
0.8328832 1.157 -0.5314412 255 226 127 255 
-1.550496 1.103 -0.5002891 229 127 255 255 
-1.237581 0.612 -0.2688233 229 127 255 255 
1.03478 1.798 -0.5190539 255 226 127 255 
-1.328791 0.758 -0.2453157 229 127 255 255 
0.9836723 1.646 -0.6161978 255 226 127 255 
0.7830545 2.054 -0.3977362 255 226 127 255 
0.8322258 1.724 -1.052548 255 226 127 255 
-1.435493 0.722 -0.4204233 229 127 255 255 
0.7990258 1.232 -0.4954599 255 226 127 255 
-1.500179 1.787 -0.04973673 229 127 255 255 
0.9453515 1.221 -0.6516449 255 226 127 255 
-1.454901 0.798 -0.399415 229 127 255 255 
-1.39993 2.078 -0.2073128 229 127 255 255 
-1.098058 1.762 -0.4980275 229 127 255 255 
-1.575726 1.841 -0.2216254 229 127 255 255 
0.7687681 1.283 -0.4672913 255 226 127 255 
-1.13169 1.466 -0.6636589 229 127 255 255 
0.7620002 1.591 -1.095144 255 226 127 255 
-1.31759 1.971 -0.3360218 229 127 255 255 
0.6722476 1.78 -0.5303215 255 226 127 255 
0.9331323 1.779 -0.6890173 255 226 127 255 
0.844331 1.617 -1.090489 255 226 127 255 
-1.168951 0.51 -0.2452662 229 127 255 255 
-1.377773 1.33 -0.6034817 229 127 255 255 
-1.440534 1.715 -0.2066935 229 127 255 255 
-1.565436 1.615 -0.055613 229 127 255 255 
0.8847657 1.863 -0.8518385 255 226 127 255 
0.792624 1.767 -0.8118645 255 226 127 255 
-1.022836 2.061 -0.4879439 229 127 255 255 
-1.385754 1.029 -0.3678118 229 127 255 255 
0.7092452 1.854 -0.5445054 255 226 127 255 
-1.26153 1.195 -0.2662906 229 127 255 255 
0.8109012 0.789 -0.177045 255 226 127 255 
0.6952385 1.872 -0.4471566 255 226 127 255 
-1.611201 1.924 -0.114073 229 127 255 255 
-1.02186 1.944 -0.5095087 229 127 255 255 
-1.136815 1.446 -0.4183538 229 127 255 255 
-1.32317 1.778 -0.2158474 229 127 255 255 
-1.298177 1.906 -0.3356527 229 127 255 255 
2.009387 1.683 1.478709 255 63 63 255 
-1.245852 1.807 -0.7497928 229 127 255 255 
-1.005007 1.891 -0.4638577 229 127 255 255 
-0.9446615 2.087 -0.4570449 229 127 255 255 
-1.114325 1.978 -0.4552206 229 127 255 255 
-1.302066 2.067 -0.3613795 229 127 255 255 
0.9023137 2.746 -0.4876763 255 63 63 255 
0.9177713 0.647 -0.2412072 255 226 127 255 
-1.366979 1.486 -0.6482983 229 127 255 255 
0.8891881 1.707 -0.9300528 255 226 127 255 
0.8120223 2.334 -0.5233899 255 226 127 255 
0.8164713 1.038 -0.1638552 255 226 127 255 
-1.434521 1.691 -0.287247 229 127 255 255 
0.8808893 1.319 -0.6586908 255 226 127 255 
-1.388297 0.595 -0.2583974 229 127 255 255 
-1.474347 0.914 -0.3519302 229 127 255 255 
0.7966586 2.082 -0.4278182 255 226 127 255 
0.8763117 1.772 -0.8054322 255 226 127 255 
-1.416007 1.511 -0.4943849 229 127 255 255 
0.7947292 1.15 -0.2991781 255 226 127 255 
-1.282593 1.361 -0.6542153 229 127 255 255 
-1.467465 1.661 -0.3318639 229 127 255 255 
-1.567167 1.621 0.1167646 229 127 255 255 
0.9760673 0.918 -0.2024439 255 226 127 255 
-1.255017 1.012 -0.2268118 229 127 255 255 
-1.574447 1.606 0.00922408 229 127 255 255 
-1.041284 1.69 -0.5526327 229 127 255 255 
0.9836695 1.352 -0.2853366 255 226 127 255 
-1.496825 1.711 -0.2723075 229 127 255 255 
-1.264884 1.79 -0.7268195 229 127 255 255 
-1.247948 1.702 -0.2057638 229 127 255 255 
0.8589042 1.482 -0.6565328 255 226 127 255 
-0.6490648 1.511 -0.9460969 248 31 63 255 
0.8095499 1.262 -0.1574446 255 226 127 255 
0.8486875 1.491 -0.2137764 255 226 127 255 
0.8550715 1.266 -0.6446037 255 226 127 255 
-1.297932 1.76 -0.297014 229 127 255 255 
0.8252606 0.631 -0.1818201 255 226 127 255 
-1.32613 1.465 -0.4341593 229 127 255 255 
0.9570481 1.331 -0.6436961 255 226 127 255 
1.038319 1.553 -0.4097811 255 226 127 255 
-1.503188 1.749 0.06791107 229 127 255 255 
-1.249226 0.592 -0.2604936 229 127 255 255 
0.9881154 1.668 -0.2780405 255 226 127 255 
-1.461634 1.229 -0.3920221 229 127 255 255 
0.9459032 2.103 -0.515334 255 226 127 255 
-1.250591 0.613 -0.4597677 229 127 255 255 
0.9496422 1.8 -0.8693045 255 226 127 255 
-1.510232 1.008 -0.374607 229 127 255 255 
1.023827 1.83 -0.5444512 255 226 127 255 
-1.221227 0.8 -0.1670859 229 127 255 255 
0.7635769 1.605 -0.6332583 255 226 127 255 
-1.093811 1.861 -0.5344686 229 127 255 255 
0.8275281 1.23 -0.6128806 255 226 127 255 
-1.278683 1.721 -0.2121172 229 127 255 255 
-1.307226 1.699 -0.2443392 229 127 255 255 
-1.21537 0.908 -0.4725946 229 127 255 255 
0.7969778 1.121 -0.2873906 255 226 127 255 
0.8067216 0.961 -0.2363116 255 226 127 255 
-1.06571 1.209 -0.4085029 229 127 255 255 
0.8298587 0.404 -0.3018071 255 226 127 255 
-1.472702 0.923 -0.492732 229 127 255 255 
-1.362721 1.441 -0.6419845 229 127 255 255 
0.9893348 1.278 -0.4370863 255 226 127 255 
-1.122965 1.098 -0.2336779 229 127 255 255 
-1.293395 1.269 -0.2999153 229 127 255 255 
-1.306232 1.756 -0.2017716 229 127 255 255 
-1.416148 0.812 -0.324347 229 127 255 255 
0.8853205 1.607 -1.046388 255 226 127 255 
-1.303798 1.81 -0.3651215 229 127 255 255 
0.7743119 1.219 -0.2087505 255 226 127 255 
0.9157102 0.581 -0.252012 255 226 127 255 
0.9260541 2.087 -0.4005819 255 226 127 255 
-1.346827 1.88 -0.5106362 229 127 255 255 
0.8294797 0.949 -0.1490299 255 226 127 255 
-1.119217 0.902 -0.2140322 229 127 255 255 
0.7788194 1.223 -0.3185397 255 226 127 255 
-1.433519 1.517 -0.5541628 229 127 255 255 
0.7178209 1.841 -0.3181022 255 226 127 255 
-1.329537 1.868 -0.4039867 229 127 255 255 
-1.068875 1.01 -0.6919299 229 127 255 255 
-1.273473 0.677 -0.4889977 229 127 255 255 
0.8952782 2.074 -0.5565782 255 226 127 255 
-1.497423 0.864 -0.4035194 229 127 255 255 
-1.273518 1.938 -0.4838993 229 127 255 255 
-1.551194 1.001 -0.4879394 229 127 255 255 
-1.241363 0.858 -0.4167343 229 127 255 255 
0.7554201 2.008 -0.3558153 255 226 127 255 
-1.469201 1.958 -0.1808642 229 127 255 255 
-1.479308 1.707 -0.1911522 229 127 255 255 
0.769093 1.98 -0.3054858 255 226 127 255 
-1.33844 0.538 -0.4613342 229 127 255 255 
-1.044055 1.09 -0.5938433 229 127 255 255 
-1.251189 1.782 -0.7670993 229 127 255 255 
0.8922201 0.43 -0.2790902 255 226 127 255 
-1.352109 1.661 -0.6664053 229 127 255 255 
-1.276276 1.006 -0.3062353 229 127 255 255 
-1.059658 1.307 -0.5155327 229 127 255 255 
0.9052241 0.815 -0.1095233 255 226 127 255 
0.8179191 1.345 -0.1722755 255 226 127 255 
0.8700535 0.63 -0.256537 255 226 127 255 
-1.572637 1.851 -0.2161064 229 127 255 255 
0.8211323 1.827 -0.9079078 255 226 127 255 
0.7635667 1.288 -0.4998941 255 226 127 255 
0.9448202 2.006 -0.3715846 255 226 127 255 
0.702564 1.736 -0.3447145 255 226 127 255 
-1.553988 1.563 0.06843926 229 127 255 255 
0.8953323 1.924 -0.1880608 255 226 127 255 
0.9418966 1.05 -0.2855126 255 226 127 255 
0.7523211 1.441 -0.2279701 255 226 127 255 
-1.266741 1.408 -0.6725101 229 127 255 255 
-1.398966 0.61 -0.2716326 229 127 255 255 
0.9667804 1.665 -0.635372 255 226 127 255 
-1.379314 0.573 -0.2540027 229 127 255 255 
-0.9833587 0.996 -0.6705761 229 127 255 255 
-1.101573 1.839 -0.5217895 229 127 255 255 
-1.078614 0.588 -0.2146515 229 127 255 255 
0.946887 1.229 -0.3394018 255 226 127 255 
-1.130055 1.379 -0.6710971 229 127 255 255 
-1.122551 0.682 -0.2581894 229 127 255 255 
-1.237973 1.712 -0.3349206 229 127 255 255 
-1.27756 1.494 -0.3823426 229 127 255 255 
-1.627234 1.714 0.1007363 229 127 255 255 
-1.435176 2.006 -0.4561154 229 127 255 255 
-1.41453 1.968 -0.3959175 229 127 255 255 
-1.536708 1.786 -0.3746466 229 127 255 255 
0.8408821 1.924 -0.7029787 255 226 127 255 
-1.550869 1.884 -0.3261339 229 127 255 255 
-1.322482 1.898 -0.09483284 229 127 255 255 
0.7222157 1.877 -0.3270846 255 226 127 255 
-1.185224 0.416 -0.2238373 229 127 255 255 
-1.294935 2.055 -0.4574167 229 127 255 255 
-1.39719 2.177 -0.4491087 229 127 255 255 
-1.44203 1.713 -0.545413 229 127 255 255 
-1.311952 1.504 -0.4185397 229 127 255 255 
0.9575064 1.001 -0.1663261 255 226 127 255 
-1.370451 0.936 -0.3462979 229 127 255 255 
0.8028786 1.869 -0.7741178 255 226 127 255 
-1.071571 0.918 -0.6313515 229 127 255 255 
-1.4479 1.655 -0.4587778 229 127 255 255 
-1.237739 0.345 -0.1629177 229 127 255 255 
0.905467 0.438 -0.2470042 255 226 127 255 
-1.363971 1.749 -0.08284611 229 127 255 255 
0.7371036 1.798 -0.2810592 255 226 127 255 
-1.259045 0.607 -0.4133615 229 127 255 255 
-1.695755 1.696 0.1311142 229 127 255 255 
0.8182367 0.866 -0.2079675 255 226 127 255 
-1.420264 0.794 -0.3245792 229 127 255 255 
0.9531364 1.093 -0.5788137 255 226 127 255 
1.03553 1.801 -0.5151246 255 226 127 255 
-1.051687 1.415 -0.6178384 229 127 255 255 
-1.400362 1.685 -0.2469337 229 127 255 255 
0.9372208 1.962 -0.6195532 255 226 127 255 
-1.224174 0.777 -0.1665238 229 127 255 255 
-1.225533 0.798 -0.34442 229 127 255 255 
-1.235086 1.785 -0.7253775 229 127 255 255 
-1.501772 1.185 -0.3996358 229 127 255 255 
-1.067175 1.14 -0.4642149 229 127 255 255 
0.8087636 1.396 -1.148858 255 226 127 255 
-1.442579 0.652 -0.3294851 229 127 255 255 
-1.024784 1.184 -0.5995554 229 127 255 255 
-1.27241 1.621 -0.3660188 229 127 255 255 
-1.237977 0.801 -0.180179 229 127 255 255 
0.8034176 1.103 -0.1735815 255 226 127 255 
-1.583166 1.817 -0.3993795 229 127 255 255 
0.957458 2.033 -0.5134659 255 226 127 255 
-1.055115 1.913 -0.4970566 229 127 255 255 
-1.431049 1.45 -0.5892464 229 127 255 255 
0.7029372 1.864 -0.5188692 255 226 127 255 
-1.133789 1.974 -0.4718687 229 127 255 255 
-1.265304 1.797 -0.7236854 229 127 255 255 
0.6653556 1.702 -0.4170232 255 226 127 255 
-1.283921 0.996 -0.5491049 229 127 255 255 
-1.267648 1.019 -0.5705334 229 127 255 255 
-1.244269 1.217 -0.2665294 229 127 255 255 
0.9102832 1.911 -0.7661011 255 226 127 255 
-1.330757 2.124 -0.4210601 229 127 255 255 
0.9542811 1.824 -0.8396484 255 226 127 255 
-1.262132 0.524 -0.2427613 229 127 255 255 
-1.341415 1.794 -0.3915408 229 127 255 255 
-1.529802 1.725 -0.09295138 229 127 255 255 
0.9721191 2.069 -0.4419464 255 226 127 255 
-1.416063 1.631 -0.3559218 229 127 255 255 
-1.206111 1.239 -0.6535342 229 127 255 255 
0.8267363 0.312 -0.2594723 255 226 127 255 
-1.291011 0.58 -0.3034246 229 127 255 255 
-1.187894 1.634 -0.40861 229 127 255 255 
-1.266544 0.594 -0.2979112 229 127 255 255 
-1.103183 0.758 -0.2527218 229 127 255 255 
-1.140387 1.943 -0.4797722 229 127 255 255 
0.9720049 2.015 -0.5172589 255 226 127 255 
-1.093218 0.829 -0.2485145 229 127 255 255 
-1.454338 0.787 -0.3964683 229 127 255 255 
0.7388779 1.77 -0.6346545 255 226 127 255 
0.832381 1.088 -0.1444936 255 226 127 255 
0.996294 1.861 -0.6460924 255 226 127 255 
-0.6808728 1.539 -0.9420651 248 31 63 255 
-1.264634 1.382 -0.6668032 229 127 255 255 
0.9628832 0.713 -0.1754964 255 226 127 255 
-1.317674 1.666 -0.3044464 229 127 255 255 
0.9690698 2.066 -0.4739418 255 226 127 255 
2.108365 1.658 1.4639 255 63 63 255 
0.7095072 1.334 -1.124833 255 226 127 255 
-1.261186 2.027 -0.5473331 229 127 255 255 
0.9360483 1.867 -0.2894868 255 226 127 255 
-1.151781 1.121 -0.2353072 229 127 255 255 
-1.362305 1.842 -0.4903769 229 127 255 255 
1.000538 1.333 -0.3516727 255 226 127 255 
-1.400346 2.131 -0.3589199 229 127 255 255 
-1.150867 1.285 -0.315906 229 127 255 255 
0.8143353 0.386 -0.2764494 255 226 127 255 
0.9325116 0.788 -0.22264 255 226 127 255 
-1.531706 0.993 -0.3857814 229 127 255 255 
-1.134133 0.995 -0.1908262 229 127 255 255 
-1.229788 1.792 -0.6815951 229 127 255 255 
-1.37417 0.567 -0.2590563 229 127 255 255 
-1.300782 0.863 -0.2852717 229 127 255 255 
0.7362384 1.337 -1.21952 255 226 127 255 
-1.081404 1.378 -0.496114 229 127 255 255 
-1.342905 1.891 -0.02578274 229 127 255 255 
-1.505839 1.066 -0.5597091 229 127 255 255 
-1.384329 0.596 -0.4617425 229 127 255 255 
-1.257225 1.777 -0.7720561 229 127 255 255 
-1.541245 1.722 -0.3717453 229 127 255 255 
-1.395237 2.107 -0.4922388 229 127 255 255 
-1.532428 1.854 -0.4589421 229 127 255 255 
-1.004616 1.824 -0.57388 229 127 255 255 
-1.050926 1.13 -0.5711542 229 127 255 255 
1.032469 1.378 -0.5898749 255 226 127 255 
1.010194 1.384 -0.6212572 255 226 127 255 
-1.130288 1.604 -0.6669808 229 127 255 255 
-1.39454 1.974 0.002391912 229 127 255 255 
0.8573922 0.479 -0.200166 255 226 127 255 
1.023375 1.461 -0.3173438 255 226 127 255 
1.089761 1.408 -0.4603154 255 226 127 255 
0.9804868 1.594 -0.6328964 255 226 127 255 
-1.211741 1.717 -0.3735197 229 127 255 255 
0.9028072 2.022 -0.5651405 255 226 127 255 
-1.158494 1.618 -0.4946423 229 127 255 255 
-1.469885 1.723 -0.4566204 229 127 255 255 
0.7697092 1.485 -0.6171215 255 226 127 255 
0.7653294 1.52 -0.2131453 255 226 127 255 
-1.074868 2.216 -0.3711249 229 127 255 255 
0.7495425 1.43 -1.149777 255 226 127 255 
0.7430296 1.333 -0.5061566 255 226 127 255 
-1.365602 0.603 -0.2301497 229 127 255 255 
0.8027074 1.819 -0.8870867 255 226 127 255 
-1.06331 1.218 -0.7001175 229 127 255 255 
-1.534454 2.108 -0.3414817 229 127 255 255 
0.934656 2.15 -0.4195296 255 226 127 255 
-1.439961 0.539 -0.3371106 229 127 255 255 
0.8435376 0.833 -0.2301002 255 226 127 255 
-1.275369 1.744 -0.4082116 229 127 255 255 
1.075259 1.344 -0.4616214 255 226 127 255 
0.8724265 0.379 -0.3028012 255 226 127 255 
-1.38667 1.598 -0.6394517 229 127 255 255 
-1.175067 1.43 -0.3733895 229 127 255 255 
0.8367318 1.946 -0.6553576 255 226 127 255 
0.8131964 1.685 -0.6773368 255 226 127 255 
-1.041261 1.921 -0.4671224 229 127 255 255 
-1.326741 1.81 -0.1011467 229 127 255 255 
-1.438447 1.637 -0.6173583 229 127 255 255 
-1.263262 1.221 -0.2700326 229 127 255 255 
-1.395036 0.653 -0.2723821 229 127 255 255 
1.915042 1.827 1.501796 255 63 63 255 
-1.083688 1.741 -0.6361663 229 127 255 255 
0.9659312 1.284 -0.3196202 255 226 127 255 
0.9573585 0.645 -0.1937847 255 226 127 255 
-1.334054 2.154 -0.1608334 229 127 255 255 
-1.065846 1.072 -0.3932065 229 127 255 255 
-1.313622 2.021 -0.5393663 229 127 255 255 
0.6653336 1.617 -0.3264143 255 226 127 255 
-1.617491 1.683 -0.02430386 229 127 255 255 
-1.508859 0.948 -0.4848167 229 127 255 255 
0.909058 1.139 -0.6284333 255 226 127 255 
-1.316345 0.619 -0.2334376 229 127 255 255 
-1.365881 2.154 -0.3970536 229 127 255 255 
-1.379156 1.631 -0.3599083 229 127 255 255 
-1.507803 1.074 -0.5593344 229 127 255 255 
0.6975164 1.703 -0.3284812 255 226 127 255 
0.8520502 1.776 -0.7458304 255 226 127 255 
0.6725333 1.538 -0.3420402 255 226 127 255 
-1.255666 1.479 -0.3743032 229 127 255 255 
-1.256792 1.898 -0.5563161 229 127 255 255 
0.9157612 1.921 -0.2357335 255 226 127 255 
-1.543773 1.686 0.1326627 229 127 255 255 
-1.369905 0.614 -0.2313645 229 127 255 255 
0.9176131 1.019 -0.1353016 255 226 127 255 
-1.316723 1.048 -0.5876408 229 127 255 255 
0.9305644 1.77 -0.1581328 255 226 127 255 
0.8246136 0.869 -0.1531919 255 226 127 255 
0.8584387 1.284 -0.6482999 255 226 127 255 
0.9479163 1.058 -0.168569 255 226 127 255 
0.6951712 1.806 -0.3514484 255 226 127 255 
-1.403958 1.975 -0.3938625 229 127 255 255 
0.8267421 0.569 -0.2380948 255 226 127 255 
0.838812 2.218 -0.4043002 255 226 127 255 
0.939001 0.972 -0.2686715 255 226 127 255 
-1.488787 2.219 -0.4703209 229 127 255 255 
-0.9945327 0.988 -0.6491019 229 127 255 255 
0.9106171 0.451 -0.2306799 255 226 127 255 
-1.531781 1.83 -0.4875703 229 127 255 255 
-1.235637 1.598 -0.6855697 229 127 255 255 
-1.260517 1.726 -0.6665705 229 127 255 255 
0.8051375 0.953 -0.2125949 255 226 127 255 
-1.521169 0.992 -0.5119911 229 127 255 255 
0.7828993 1.466 -0.6226915 255 226 127 255 
0.7841172 1.768 -0.9578568 255 226 127 255 
-1.290942 0.619 -0.2230132 229 127 255 255 
0.8946108 0.625 -0.2612215 255 226 127 255 
-1.515729 2.088 -0.4621276 229 127 255 255 
0.8965065 1.111 -0.3420077 255 226 127 255 
-1.427727 1.74 -0.5878441 229 127 255 255 
-1.071804 0.894 -0.6272354 229 127 255 255 
0.6734922 1.797 -0.4277374 255 226 127 255 
2.034086 1.785 1.480106 255 63 63 255 
1.019569 1.85 -0.5507652 255 226 127 255 
0.8637747 1.219 -0.1240134 255 226 127 255 
0.9237747 1.94 -0.6953764 255 226 127 255 
0.944514 1.759 -0.2931381 255 226 127 255 
-1.274187 1.564 -0.3646613 229 127 255 255 
0.9183276 1.932 -0.2596375 255 226 127 255 
1.028461 1.262 -0.536173 255 226 127 255 
0.8367684 1.546 -1.034072 255 226 127 255 
-1.425353 1.365 -0.4579892 229 127 255 255 
-0.9668179 2.1 -0.5678559 229 127 255 255 
0.9265914 1.282 -0.6592647 255 226 127 255 
0.9401691 1.216 -0.4439958 255 226 127 255 
-0.907948 2.091 -0.4833911 229 127 255 255 
0.9509084 0.599 -0.1742301 255 226 127 255 
0.6841713 1.62 -0.5478665 255 226 127 255 
-1.400576 1.825 -0.002564952 229 127 255 255 
-1.356168 1.185 -0.6289821 229 127 255 255 
-1.177761 1.142 -0.6436724 229 127 255 255 
-1.133969 1.523 -0.2753538 229 127 255 255 
0.8244511 2.279 -0.5756442 255 226 127 255 
0.9898895 1.726 -0.6316363 255 226 127 255 
-1.316323 1.074 -0.3240468 229 127 255 255 
-1.253335 1.802 -0.7463292 229 127 255 255 
0.979389 0.964 -0.2010416 255 226 127 255 
-1.065314 1.323 -0.6732664 229 127 255 255 
0.9283921 0.719 -0.5751114 255 226 127 255 
-1.466647 1.714 -0.2475236 229 127 255 255 
-1.402147 1.357 -0.4430733 229 127 255 255 
0.70962 1.481 -0.542541 255 226 127 255 
-1.363065 2.103 -0.360942 229 127 255 255 
-1.469049 2.106 -0.3081468 229 127 255 255 
0.9207678 2.256 -0.4016099 255 226 127 255 
0.7909421 1.158 -0.2923475 255 226 127 255 
1.038477 1.277 -0.5156867 255 226 127 255 
0.8170363 1.207 -0.4917693 255 226 127 255 
-1.406729 0.568 -0.435073 229 127 255 255 
-1.302154 1.754 -0.6820429 229 127 255 255 
0.7632022 1.617 -0.6352228 255 226 127 255 
0.8951581 1.956 -0.6532685 255 226 127 255 
0.8455269 1.461 -0.6519451 255 226 127 255 
0.7543175 1.469 -1.135418 255 226 127 255 
0.9553032 1.056 -0.1832126 255 226 127 255 
-1.262759 0.833 -0.4808615 229 127 255 255 
-1.406467 0.913 -0.3323015 229 127 255 255 
0.6749165 1.617 -0.5216681 255 226 127 255 
-1.093729 0.896 -0.2351826 229 127 255 255 
-1.476881 1.812 -0.5519987 229 127 255 255 
-1.504606 2.039 -0.4998808 229 127 255 255 
-1.226957 1.609 -0.2504893 229 127 255 255 
1.023039 1.879 -0.5219042 255 226 127 255 
-1.286843 1.918 -0.2869129 229 127 255 255 
0.882403 1.846 -0.2558389 255 226 127 255 
0.7844481 1.815 -0.09157428 255 226 127 255 
0.9504443 1.941 -0.6729771 255 226 127 255 
0.9718482 1.054 -0.2352341 255 226 127 255 
-1.279925 1.182 -0.6455622 229 127 255 255 
-1.125001 1.191 -0.6659528 229 127 255 255 
0.7225509 1.798 -0.2986438 255 226 127 255 
0.8185544 1.604 -0.2436591 255 226 127 255 
0.8099802 0.357 -0.2939433 255 226 127 255 
0.7531407 1.738 -0.6506097 255 226 127 255 
0.8140161 1.617 -1.099977 255 226 127 255 
-1.293526 1.114 -0.2632415 229 127 255 255 
-1.43524 1.555 -0.008168891 229 127 255 255 
-1.110885 1.585 -0.5332475 229 127 255 255 
0.683836 1.732 -0.5763073 255 226 127 255 
-1.352346 2.06 -0.507547 229 127 255 255 
-1.383641 2.108 -0.3407279 229 127 255 255 
0.8454304 1.557 -0.6631252 255 226 127 255 
-0.8693548 2.093 -0.4785367 229 127 255 255 
-1.365404 2.111 -0.3625316 229 127 255 255 
-1.576228 1.803 0.1653227 229 127 255 255 
0.6570202 1.663 -0.4500461 255 226 127 255 
-1.084239 1.502 -0.5963585 229 127 255 255 
-1.106404 0.966 -0.3976862 229 127 255 255 
0.7038288 1.871 -0.5088592 255 226 127 255 
0.9488809 1.446 -0.2328893 255 226 127 255 
0.690617 1.844 -0.4126799 255 226 127 255 
-1.004281 1.843 -0.5454391 229 127 255 255 
-1.366547 1.78 -0.608677 229 127 255 255 
0.9937282 1.487 -0.6221879 255 226 127 255 
-1.519731 0.904 -0.3870478 229 127 255 255 
-1.526937 0.912 -0.3927995 229 127 255 255 
-1.267128 1.685 -0.2102491 229 127 255 255 
-1.53275 2.112 -0.2685089 229 127 255 255 
0.9481549 0.646 -0.1513078 255 226 127 255 
-1.28334 0.595 -0.3059058 229 127 255 255 
-1.282636 1.662 -0.2968781 229 127 255 255 
-1.265946 1.818 -0.6736792 229 127 255 255 
-1.240271 0.576 -0.1868676 229 127 255 255 
0.9443047 0.664 -0.2035111 255 226 127 255 
-1.312435 2.105 -0.4744391 229 127 255 255 
0.8102819 0.922 -0.2176481 255 226 127 255 
0.7629372 1.293 -0.4071331 255 226 127 255 
0.966502 1.953 -0.6261569 255 226 127 255 
-1.380576 1.59 -0.4207193 229 127 255 255 
0.7660203 1.442 -1.106091 255 226 127 255 
-1.413489 1.961 -0.1823293 229 127 255 255 
-1.436089 2.143 -0.3755166 229 127 255 255 
-0.9980989 1.105 -0.6891428 229 127 255 255 
-1.251431 0.665 -0.4534992 229 127 255 255 
0.7912185 1.285 -1.160782 255 226 127 255 
-1.138819 0.921 -0.3915026 229 127 255 255 
-1.313309 1.499 -0.4203167 229 127 255 255 
-1.592806 1.811 -0.2417818 229 127 255 255 
-1.406461 1.649 -0.310924 229 127 255 255 
-1.013542 1.788 -0.5406187 229 127 255 255 
-1.30772 1.768 -0.1668749 229 127 255 255 
-1.236762 0.523 -0.1844831 229 127 255 255 
-1.126546 1.268 -0.6687121 229 127 255 255 
-1.151956 0.82 -0.193534 229 127 255 255 
-1.484218 1.81 -0.01409615 229 127 255 255 
-1.460046 1.705 -0.5704809 229 127 255 255 
0.7557847 1.493 -0.2204866 255 226 127 255 
0.9202306 1.191 -0.1429271 255 226 127 255 
0.840907 1.231 -0.4413492 255 226 127 255 
-1.393794 1.077 -0.3459175 229 127 255 255 
-1.363816 0.991 -0.5409904 229 127 255 255 
0.9687083 1.472 -0.2570321 255 226 127 255 
1.027251 1.707 -0.5104914 255 226 127 255 
0.8945506 1.205 -0.6511167 255 226 127 255 
0.7670305 2.014 -0.4924102 255 226 127 255 
-1.2883 1.365 -0.6521087 229 127 255 255 
0.905041 1.779 -0.9483467 255 226 127 255 
-1.361504 0.562 -0.4701689 229 127 255 255 
0.7942125 1.171 -0.3072237 255 226 127 255 
1.078983 1.346 -0.527486 255 226 127 255 
0.9550191 0.73 -0.1953749 255 226 127 255 
-1.522656 2.17 -0.4770949 229 127 255 255 
-1.227205 1.565 -0.6413667 229 127 255 255 
-1.380305 1.773 -0.6274315 229 127 255 255 
-1.55549 1.86 -0.2916572 229 127 255 255 
-1.275767 0.584 -0.4956864 229 127 255 255 
-1.054304 1.775 -0.6102129 229 127 255 255 
-1.542251 1.13 -0.4570683 229 127 255 255 
-1.604778 1.627 0.1117228 229 127 255 255 
-1.436085 0.984 -0.5302582 229 127 255 255 
1.036127 1.339 -0.3839126 255 226 127 255 
-1.348398 0.547 -0.2680445 229 127 255 255 
-1.151685 1.44 -0.4002463 229 127 255 255 
0.9931599 1.907 -0.6465125 255 226 127 255 
0.8538319 0.741 -0.2188295 255 226 127 255 
0.8430897 0.666 -0.1577344 255 226 127 255 
-1.274823 0.96 -0.2932782 229 127 255 255 
0.7326225 1.944 -0.4166206 255 226 127 255 
-1.286241 1.828 -0.3104426 229 127 255 255 
0.930017 2.33 -0.4491853 255 226 127 255 
0.7103519 1.682 -0.6027445 255 226 127 255 
1.017679 1.677 -0.4486015 255 226 127 255 
-1.225386 0.923 -0.493081 229 127 255 255 
0.928812 1.994 -0.5782459 255 226 127 255 
-1.519891 2.107 -0.4572613 229 127 255 255 
0.7306594 1.516 -0.2401267 255 226 127 255 
0.9386219 0.833 -0.1158942 255 226 127 255 
0.7677083 1.265 -0.2380315 255 226 127 255 
-1.209343 0.261 -0.1581544 229 127 255 255 
-1.406496 0.58 -0.4391898 229 127 255 255 
0.9621778 1.294 -0.3606434 255 226 127 255 
0.9584199 1.218 -0.2469249 255 226 127 255 
-1.326426 2.101 -0.4890765 229 127 255 255 
-1.089758 1.55 -0.5932698 229 127 255 255 
1.008508 1.289 -0.6300976 255 226 127 255 
-1.358704 1.951 -0.3220701 229 127 255 255 
0.9423651 1.96 -0.6246064 255 226 127 255 
0.8961962 0.739 -0.1088191 255 226 127 255 
0.9138935 1.969 -0.2241786 255 226 127 255 
-1.22535 0.353 -0.1886961 229 127 255 255 
0.7275647 1.598 -0.2670231 255 226 127 255 
-1.223605 1.173 -0.6491796 229 127 255 255 
