ply
format ascii 1.0
comment VCGLIB generated
element vertex 1225
property float x
property float y
property float z
property uchar red
property uchar green
property uchar blue
property uchar alpha
element face 0
property list uchar int vertex_indices
end_header
-0.865178 1.45984 -0.275921 0 29 128 1 
-0.954897 1.24848 -0.370861 0 29 128 1 
1.02508 0.652206 -0.11556 0 170 0 255 
1.49154 1.70478 0.00404111 0 170 0 255 
0.984774 1.36644 0.370793 0 170 0 255 
1.04366 0.865317 0.0141811 0 170 0 255 
-0.944258 0.340857 -0.281307 0 29 128 1 
1.4961 1.85303 -0.0572749 0 170 0 255 
-1.16562 1.33721 -0.0218489 0 29 128 1 
-0.797258 1.35689 -0.0774524 0 29 128 1 
-0.908459 1.53398 0.564974 0 29 128 1 
1.16358 0.695025 -0.157685 0 170 0 255 
-0.730696 1.60939 -0.12365 0 29 128 1 
1.05787 1.09278 -0.079147 0 170 0 255 
-0.753954 1.46494 -0.168046 0 29 128 1 
1.02706 1.3544 0.371178 0 170 0 255 
-0.823377 1.27955 -0.214874 0 29 128 1 
-1.09201 1.69846 -0.060688 0 29 128 1 
-1.02138 1.10327 -0.294623 0 29 128 1 
1.35252 2.07514 0.0566987 0 170 0 255 
1.58242 1.81737 -0.390476 0 170 0 255 
-1.01951 1.35341 -0.257569 0 29 128 1 
1.51261 1.7625 -0.0364357 0 170 0 255 
1.12372 1.77638 0.291873 0 170 0 255 
1.2194 0.710359 0.180313 0 170 0 255 
1.0837 1.49123 0.362721 0 170 0 255 
-0.919501 1.40942 -0.302366 0 29 128 1 
-0.85749 2.09313 0.00461245 0 29 128 1 
1.26468 1.61677 1.65127 0 170 0 255 
1.44159 1.69279 0.0501055 0 170 0 255 
-0.755853 1.45588 -0.167448 0 29 128 1 
-0.891865 0.731958 -0.363578 0 29 128 1 
1.30957 1.68207 0.418719 0 170 0 255 
-1.93156 1.86703 -2.04382 255 63 63 255 
1.30166 1.33161 0.16546 0 170 0 255 
1.38588 1.63874 0.173483 0 170 0 255 
1.09386 0.747494 -0.147926 0 170 0 255 
-0.97854 0.503836 -0.338119 0 29 128 1 
-1.00608 2.73097 0.0582492 255 63 63 255 
1.56948 1.60797 -0.282015 0 170 0 255 
1.21494 1.82138 0.0288181 0 170 0 255 
-0.809834 1.79257 0.143923 0 29 128 1 
-0.983091 1.20183 -0.06639 0 29 128 1 
-0.92729 1.41516 0.714014 0 29 128 1 
-0.934711 1.43376 -0.291357 0 29 128 1 
-1.09583 1.12068 0.0574477 0 29 128 1 
1.03987 1.75189 0.251687 0 170 0 255 
-1.06626 1.14199 -0.0243876 0 29 128 1 
-1.1331 1.42181 0.0651405 0 29 128 1 
0.893307 1.71567 -0.135696 0 170 0 255 
1.35329 1.3268 0.224822 0 170 0 255 
1.14255 0.398507 -0.143644 0 170 0 255 
1.01669 1.09765 -0.0458827 0 170 0 255 
-0.801617 1.6333 -0.184043 0 29 128 1 
-0.816263 2.10212 0.0829225 0 29 128 1 
-1.04953 2.22855 0.0329214 0 29 128 1 
1.20618 0.75538 0.181402 0 170 0 255 
-0.92267 1.15827 -0.0123367 0 29 128 1 
-0.85498 1.78231 0.209783 0 29 128 1 
-0.927329 2.30733 0.023782 0 29 128 1 
-1.16761 1.33449 -0.0107731 0 29 128 1 
1.3448 1.38803 0.300982 0 170 0 255 
-0.940414 1.43752 -0.287574 0 29 128 1 
1.19763 1.28438 0.354075 0 170 0 255 
1.38722 1.98709 0.288348 0 170 0 255 
1.41192 2.09971 0.313457 0 170 0 255 
-0.963238 1.63002 0.598306 0 29 128 1 
1.48497 1.71965 -0.320423 0 170 0 255 
1.40282 1.66737 0.195912 0 170 0 255 
-1.00941 1.63064 -0.20544 0 29 128 1 
1.16795 0.658294 0.086081 0 170 0 255 
1.3511 0.509331 0.00337851 0 170 0 255 
1.50006 1.79288 -0.337218 0 170 0 255 
-0.948876 1.26021 0.147557 0 29 128 1 
-0.899465 0.884073 -0.282657 0 29 128 1 
-1.15491 1.35816 0.0419121 0 29 128 1 
1.35462 1.83088 -0.211776 0 170 0 255 
1.37137 1.23964 0.131022 0 170 0 255 
-0.763382 1.82664 -0.0271872 0 29 128 1 
1.25683 1.08139 0.0206401 0 170 0 255 
1.29521 0.527862 -0.0355937 0 170 0 255 
-1.01865 0.801793 -0.405838 0 29 128 1 
1.34342 0.898222 0.0331272 0 170 0 255 
-0.841015 1.14595 -0.240973 0 29 128 1 
-1.16149 1.45171 -0.0571216 0 29 128 1 
1.10334 0.849663 -0.147252 0 170 0 255 
-1.04896 1.6245 -0.188125 0 29 128 1 
0.983108 1.06685 0.354689 0 170 0 255 
1.26504 1.96495 0.18038 0 170 0 255 
1.55234 1.82896 -0.0257354 0 170 0 255 
-1.00846 2.07273 0.0875599 0 29 128 1 
1.21474 1.61902 0.0902782 0 170 0 255 
-0.794141 1.37784 -0.185064 0 29 128 1 
-1.10744 1.34077 0.109902 0 29 128 1 
1.34162 1.43376 0.291135 0 170 0 255 
1.12765 1.38082 0.396874 0 170 0 255 
-0.910393 1.63582 0.539504 0 29 128 1 
-0.840482 1.13572 -0.268849 0 29 128 1 
1.16789 0.36026 -0.187668 0 170 0 255 
-0.927243 0.978112 -0.404875 0 29 128 1 
1.40815 1.05046 0.0812703 0 170 0 255 
1.29613 2.0499 -0.11183 0 170 0 255 
1.3446 1.92258 -0.0952787 0 170 0 255 
-0.883407 0.643026 -0.320768 0 29 128 1 
-0.872093 0.606334 -0.342277 0 29 128 1 
0.978574 1.43565 0.307389 0 170 0 255 
1.28342 0.490983 0.0858755 0 170 0 255 
-0.911473 2.31833 0.0552382 0 29 128 1 
-1.07635 1.67736 0.142799 0 29 128 1 
-1.0925 1.87926 0.166324 0 29 128 1 
1.12016 1.11085 0.340946 0 170 0 255 
1.48939 1.7628 0.0834393 0 170 0 255 
1.26486 1.781 0.298366 0 170 0 255 
-1.15243 1.47253 -0.0224002 0 29 128 1 
-1.08809 1.48027 0.122137 0 29 128 1 
-0.808846 1.92989 -0.0123563 0 29 128 1 
0.912588 1.78479 0.300676 0 170 0 255 
1.08785 1.52891 0.135343 0 170 0 255 
-0.840934 1.62678 0.166291 0 29 128 1 
1.2404 1.89799 0.302096 0 170 0 255 
1.04984 0.910598 -0.113277 0 170 0 255 
-0.808778 1.85323 0.10446 0 29 128 1 
-1.11033 1.8426 -0.0426942 0 29 128 1 
-1.01228 1.32545 -0.290218 0 29 128 1 
1.16812 1.7023 0.135124 0 170 0 255 
1.2728 0.919665 0.22914 0 170 0 255 
1.42745 1.68753 0.225141 0 170 0 255 
-1.01057 1.4822 -0.250102 0 29 128 1 
-0.91514 1.6735 0.467901 0 29 128 1 
-0.884079 1.02671 -0.225584 0 29 128 1 
1.12548 1.33075 0.38077 0 170 0 255 
1.16484 0.777515 0.0708927 0 170 0 255 
0.981072 1.13541 0.0835758 0 170 0 255 
-0.91012 1.48277 0.675536 0 29 128 1 
-0.832108 1.82791 0.155279 0 29 128 1 
-1.01711 1.71305 0.211116 0 29 128 1 
-0.970235 2.32767 0.0501501 0 29 128 1 
-0.858135 1.25788 -0.00278097 0 29 128 1 
-0.901266 2.22036 0.160699 0 29 128 1 
-1.11626 1.81465 0.0335315 0 29 128 1 
-0.897284 0.815809 -0.296305 0 29 128 1 
-0.948217 0.784161 -0.427509 0 29 128 1 
-1.0352 1.77597 0.292287 0 29 128 1 
-0.759688 1.80873 -0.0759706 0 29 128 1 
1.09197 0.67428 -0.162525 0 170 0 255 
-1.09649 1.82419 0.118872 0 29 128 1 
1.2948 1.0472 0.302749 0 170 0 255 
1.05136 1.11666 -0.0609146 0 170 0 255 
-0.799812 1.86572 -0.292016 0 29 128 1 
0.956688 1.91905 0.176478 0 170 0 255 
-0.809666 2.07661 0.0434458 0 29 128 1 
-0.740365 1.51633 -0.125734 0 29 128 1 
-1.11504 1.28529 0.0999844 0 29 128 1 
-1.01513 1.04237 -0.3293 0 29 128 1 
-0.889442 1.58778 0.600907 0 29 128 1 
1.2246 1.78269 -0.055055 0 170 0 255 
1.06453 2.21639 0.134416 0 170 0 255 
-0.874847 1.07875 -0.208993 0 29 128 1 
-0.892844 1.8746 0.208119 0 29 128 1 
-0.809315 2.03628 0.000569165 0 29 128 1 
1.19387 1.27844 0.0260022 0 170 0 255 
-0.915429 1.58874 -0.223783 0 29 128 1 
0.875828 0.988305 0.32927 0 170 0 255 
-1.08214 1.7981 0.197385 0 29 128 1 
1.19536 1.38493 0.37987 0 170 0 255 
-0.978378 1.12319 0.112261 0 29 128 1 
-1.8804 1.82117 -2.04743 255 63 63 255 
0.943512 1.04316 0.271259 0 170 0 255 
1.15267 1.7719 0.454964 0 170 0 255 
1.06432 1.37995 0.0987315 0 170 0 255 
1.21865 0.860004 -0.0273384 0 170 0 255 
1.10704 1.3777 0.0715318 0 170 0 255 
-1.03124 1.10198 0.114731 0 29 128 1 
0.915347 1.22625 0.337942 0 170 0 255 
0.93597 1.71932 0.321491 0 170 0 255 
-0.958414 1.09841 -0.000841022 0 29 128 1 
-0.818164 1.93965 0.00723734 0 29 128 1 
-1.00111 1.55863 0.508631 0 29 128 1 
1.19532 1.65167 0.408105 0 170 0 255 
1.39845 0.883504 0.184116 0 170 0 255 
1.32398 2.15253 0.255477 0 170 0 255 
-0.873873 1.65492 -0.193143 0 29 128 1 
1.32117 1.57378 0.186297 0 170 0 255 
1.34066 1.69685 0.298087 0 170 0 255 
1.20145 1.93517 0.284909 0 170 0 255 
1.43687 0.966511 0.0933649 0 170 0 255 
1.32007 1.52134 0.347041 0 170 0 255 
-1.10436 1.17134 0.0333132 0 29 128 1 
1.26033 2.07681 0.0149339 0 170 0 255 
-0.938814 1.20306 -0.0542645 0 29 128 1 
-1.01545 0.755225 -0.351772 0 29 128 1 
1.2388 1.76702 0.110679 0 170 0 255 
1.34261 0.528651 0.0768414 0 170 0 255 
1.02085 1.11576 0.342305 0 170 0 255 
1.15759 0.812593 0.0707948 0 170 0 255 
0.983617 1.33922 0.202111 0 170 0 255 
0.98639 0.969171 0.362191 0 170 0 255 
1.14099 0.311331 -0.22156 0 170 0 255 
-0.983684 1.79862 -0.30868 0 29 128 1 
-1.02831 1.42491 0.157376 0 29 128 1 
1.42526 1.80757 -0.176475 0 170 0 255 
-1.12558 1.44741 0.0721376 0 29 128 1 
1.14899 0.299849 -0.167687 0 170 0 255 
0.96337 1.39783 0.303329 0 170 0 255 
0.971892 1.10151 0.189903 0 170 0 255 
-1.01264 1.30845 -0.306371 0 29 128 1 
0.932131 2.10883 0.217098 0 170 0 255 
1.07815 1.15609 -0.0507679 0 170 0 255 
-1.14489 1.51783 0.0522736 0 29 128 1 
-0.998932 1.65647 0.561013 0 29 128 1 
1.41976 0.923337 0.0790718 0 170 0 255 
1.24442 1.79884 -0.0568369 0 170 0 255 
-1.01502 1.69888 0.431385 0 29 128 1 
1.391 1.80931 -0.265801 0 170 0 255 
1.20134 1.62824 0.0870673 0 170 0 255 
0.981466 1.14642 0.363983 0 170 0 255 
1.21812 1.97398 0.117838 0 170 0 255 
-0.932292 1.55357 0.525148 0 29 128 1 
-0.728068 1.55848 -0.14226 0 29 128 1 
1.4035 2.06876 0.296137 0 170 0 255 
0.975011 1.0091 0.240022 0 170 0 255 
0.928862 1.01152 0.295721 0 170 0 255 
-0.954935 1.81507 -0.190511 0 29 128 1 
-1.10326 1.28507 0.119017 0 29 128 1 
1.50255 1.59099 -0.345403 0 170 0 255 
1.39176 2.2059 0.220504 0 170 0 255 
-0.979369 0.880545 -0.399337 0 29 128 1 
1.22283 0.821826 0.192202 0 170 0 255 
-0.81427 1.93175 0.00536662 0 29 128 1 
-0.989817 2.19794 0.135164 0 29 128 1 
1.59194 1.63125 -0.254399 0 170 0 255 
1.32171 0.501869 0.0881009 0 170 0 255 
0.986159 1.37036 0.232057 0 170 0 255 
1.28786 0.543734 0.138168 0 170 0 255 
-0.816114 1.25198 0.633968 0 29 128 1 
1.46516 1.62123 -0.114637 0 170 0 255 
-1.0118 1.22064 -0.280906 0 29 128 1 
1.17709 1.55679 0.0917343 0 170 0 255 
1.26132 1.23841 0.0253006 0 170 0 255 
1.08746 1.61741 0.11491 0 170 0 255 
1.20542 1.56832 0.0838451 0 170 0 255 
1.3381 1.44098 0.319089 0 170 0 255 
1.26583 0.842645 -0.00661272 0 170 0 255 
0.941322 1.96222 0.253111 0 170 0 255 
-0.890164 1.5816 0.603594 0 29 128 1 
1.03195 0.608247 -0.164298 0 170 0 255 
-0.744869 1.70577 0.0136534 0 29 128 1 
-0.834803 1.94849 0.056623 0 29 128 1 
1.04285 0.560212 -0.102981 0 170 0 255 
-0.788227 1.77464 -0.137938 0 29 128 1 
1.13111 1.71718 0.402099 0 170 0 255 
1.23677 0.616043 -0.098025 0 170 0 255 
-0.84356 1.63549 0.171117 0 29 128 1 
-1.12767 1.49436 0.074344 0 29 128 1 
1.59572 1.59432 -0.303409 0 170 0 255 
1.14217 1.78593 0.25256 0 170 0 255 
1.04973 0.627468 -0.0892206 0 170 0 255 
-0.846057 1.30157 -0.307979 0 29 128 1 
0.954887 1.74239 0.321243 0 170 0 255 
-0.905907 0.727368 -0.38573 0 29 128 1 
1.26945 1.10284 0.325756 0 170 0 255 
1.24694 0.494784 0.104553 0 170 0 255 
-1.10049 1.85923 0.0882867 0 29 128 1 
1.36771 1.85475 -0.286907 0 170 0 255 
-0.904247 1.00043 -0.39347 0 29 128 1 
1.44756 2.00536 0.191424 0 170 0 255 
1.63574 1.6891 -0.265755 0 170 0 255 
-1.14345 1.50068 0.022864 0 29 128 1 
1.27904 1.73095 0.406546 0 170 0 255 
-0.897018 1.76775 0.3425 0 29 128 1 
1.16021 0.437306 -0.123646 0 170 0 255 
-0.918201 0.893101 -0.26728 0 29 128 1 
-0.867389 2.02654 -0.0973772 0 29 128 1 
1.32767 1.94772 -0.0810428 0 170 0 255 
-0.776941 1.85868 0.0354838 0 29 128 1 
-0.908958 1.4343 0.61898 0 29 128 1 
1.38188 1.23533 0.13582 0 170 0 255 
1.43763 1.10917 0.243347 0 170 0 255 
1.07787 1.68367 0.377648 0 170 0 255 
1.22228 0.98505 0.0538302 0 170 0 255 
1.15479 0.715511 -0.164618 0 170 0 255 
1.42214 2.08046 0.270027 0 170 0 255 
1.05279 1.21198 0.357646 0 170 0 255 
0.890157 0.940101 0.362088 0 170 0 255 
1.12877 1.30325 0.0295337 0 170 0 255 
-0.998365 1.132 -0.0403026 0 29 128 1 
1.18669 1.98913 0.302814 0 170 0 255 
-0.928068 1.08161 -0.175761 0 29 128 1 
1.40988 1.94328 -0.292116 0 170 0 255 
-1.1492 1.51054 -0.0836425 0 29 128 1 
1.07453 1.22924 -0.0195678 0 170 0 255 
1.21806 1.0085 -0.0459053 0 170 0 255 
-0.950455 1.8564 0.334984 0 29 128 1 
1.19943 1.74851 -0.0690369 0 170 0 255 
1.23666 0.813566 -0.0531066 0 170 0 255 
-0.964229 1.94791 -0.261612 0 29 128 1 
-0.991052 2.69749 0.0335883 255 63 63 255 
1.38426 1.91197 -0.101604 0 170 0 255 
-0.971687 1.69629 0.565106 0 29 128 1 
-0.769105 1.76208 0.10402 0 29 128 1 
-0.902907 1.09825 -0.185044 0 29 128 1 
-0.972546 1.75601 0.493559 0 29 128 1 
-0.948906 1.56086 0.629776 0 29 128 1 
-1.10005 1.62421 -0.0435988 0 29 128 1 
-0.943861 1.68146 0.219482 0 29 128 1 
-0.836088 1.28451 -0.0896225 0 29 128 1 
-0.94333 0.665613 -0.282634 0 29 128 1 
-0.768081 1.84296 -0.000550687 0 29 128 1 
1.23236 1.57592 0.401852 0 170 0 255 
1.36381 1.90057 -0.282596 0 170 0 255 
-0.981189 0.676494 -0.311674 0 29 128 1 
0.992015 1.31027 0.138099 0 170 0 255 
1.37264 1.07178 0.045644 0 170 0 255 
-1.01364 2.16493 0.103021 0 29 128 1 
1.27904 1.92745 0.078073 0 170 0 255 
-0.88443 0.733255 -0.337006 0 29 128 1 
1.35623 1.68794 0.280994 0 170 0 255 
1.34353 2.13365 0.237378 0 170 0 255 
1.43915 1.98569 -0.00126317 0 170 0 255 
1.14711 0.573255 0.00604326 0 170 0 255 
1.02313 1.27531 0.0585393 0 170 0 255 
1.31174 1.55178 0.356806 0 170 0 255 
-0.834281 1.31432 -0.288112 0 29 128 1 
1.41963 2.19293 0.172844 0 170 0 255 
-1.02834 1.1105 -0.282452 0 29 128 1 
-0.976898 1.11307 -0.0263801 0 29 128 1 
1.28865 0.933107 0.0514549 0 170 0 255 
1.12415 1.15425 -0.0530853 0 170 0 255 
1.00631 2.04325 0.255393 0 170 0 255 
1.02915 0.601115 -0.162488 0 170 0 255 
-1.03721 1.72022 -0.196124 0 29 128 1 
1.16976 0.945022 0.224105 0 170 0 255 
1.25322 1.64448 -0.102792 0 170 0 255 
1.27853 2.05876 0.0151255 0 170 0 255 
1.16026 0.691852 0.125168 0 170 0 255 
1.10283 0.653165 -0.176953 0 170 0 255 
1.42234 1.61897 -0.110861 0 170 0 255 
-1.15345 1.51228 -0.0640234 0 29 128 1 
1.21143 1.79567 0.0546538 0 170 0 255 
1.00891 1.09876 -0.0320179 0 170 0 255 
1.47374 1.90069 -0.0350548 0 170 0 255 
-0.814121 1.67353 -0.186347 0 29 128 1 
-0.86778 1.28855 0.719538 0 29 128 1 
-0.889243 1.9516 -0.209878 0 29 128 1 
-0.785985 1.85826 0.0574163 0 29 128 1 
-0.911599 1.80932 0.350535 0 29 128 1 
-0.930478 0.285762 -0.265988 0 29 128 1 
-0.944291 0.412552 -0.320966 0 29 128 1 
-0.802247 2.11425 0.0502198 0 29 128 1 
-0.752536 1.693 0.071896 0 29 128 1 
-1.11006 1.63679 0.0567386 0 29 128 1 
1.06596 0.916401 0.108 0 170 0 255 
-0.823977 1.29428 -0.132365 0 29 128 1 
-0.960527 1.6482 0.596208 0 29 128 1 
-0.882814 0.457892 -0.29349 0 29 128 1 
1.19982 1.76851 0.211949 0 170 0 255 
1.45635 1.92912 0.161565 0 170 0 255 
-1.11325 1.71844 0.0492029 0 29 128 1 
-0.898499 1.37419 0.696668 0 29 128 1 
1.07357 0.845006 -0.121682 0 170 0 255 
-0.919185 1.8953 0.228969 0 29 128 1 
0.910671 0.974677 0.291997 0 170 0 255 
-0.977991 0.517712 -0.32017 0 29 128 1 
-0.791882 1.61476 0.11977 0 29 128 1 
1.47755 1.97086 0.0113732 0 170 0 255 
-0.815314 1.53745 0.121973 0 29 128 1 
-0.933446 1.56147 -0.235963 0 29 128 1 
-1.02831 1.4573 -0.236999 0 29 128 1 
1.40887 0.994749 0.261762 0 170 0 255 
1.14341 1.60438 -0.0872689 0 170 0 255 
-0.955087 1.37742 0.693 0 29 128 1 
-1.07364 2.72571 -0.000303 255 63 63 255 
0.969723 0.893587 0.306529 0 170 0 255 
1.44699 2.17269 0.207274 0 170 0 255 
1.24844 1.86178 -0.162836 0 170 0 255 
1.35987 2.10088 0.326347 0 170 0 255 
-0.802094 1.35742 -0.163512 0 29 128 1 
-1.05543 1.88836 0.243009 0 29 128 1 
1.26967 1.28926 0.0761077 0 170 0 255 
1.23813 0.487881 0.0405161 0 170 0 255 
0.89798 1.10044 0.315338 0 170 0 255 
1.12767 1.50662 0.108125 0 170 0 255 
1.53846 1.6714 -0.364649 0 170 0 255 
-0.931347 1.90178 -0.245453 0 29 128 1 
1.24082 2.0123 0.0830072 0 170 0 255 
1.22396 1.8781 -0.0116272 0 170 0 255 
1.34393 1.64824 -0.0987811 0 170 0 255 
0.888521 1.96573 0.213897 0 170 0 255 
1.04629 0.897393 0.0451846 0 170 0 255 
1.66919 1.69495 -0.372085 0 170 0 255 
-0.937643 2.05728 0.125363 0 29 128 1 
1.15544 1.38005 0.393274 0 170 0 255 
0.875503 2.0778 0.309842 0 170 0 255 
-0.932 1.72309 0.242206 0 29 128 1 
-1.04002 1.61924 0.173971 0 29 128 1 
-0.927614 1.73116 0.334897 0 29 128 1 
1.61578 1.66713 -0.376027 0 170 0 255 
1.36327 0.782934 0.0339543 0 170 0 255 
1.21968 1.02545 -0.060057 0 170 0 255 
1.24576 2.0803 0.240884 0 170 0 255 
1.23889 0.515336 0.127744 0 170 0 255 
-0.972979 0.621151 -0.401517 0 29 128 1 
1.30322 1.01187 0.073301 0 170 0 255 
1.21583 0.862984 -0.0580819 0 170 0 255 
1.31562 1.93487 -0.114978 0 170 0 255 
1.28174 2.08693 -0.0799559 0 170 0 255 
1.4611 1.7021 0.154574 0 170 0 255 
-1.02372 1.52923 0.545033 0 29 128 1 
1.45754 1.76277 0.130628 0 170 0 255 
-0.939657 1.14673 -0.144348 0 29 128 1 
-0.76912 1.80913 -0.113319 0 29 128 1 
1.51779 1.85224 0.0483571 0 170 0 255 
-1.10487 1.18671 0.105793 0 29 128 1 
-0.738314 1.55375 -0.177851 0 29 128 1 
-0.966705 2.02901 0.113123 0 29 128 1 
-1.1643 1.37087 -0.0932598 0 29 128 1 
-0.81401 1.82132 0.133074 0 29 128 1 
-0.887245 0.982617 -0.241212 0 29 128 1 
1.26663 2.04106 -0.0835358 0 170 0 255 
-1.07374 1.98076 0.0373068 0 29 128 1 
-1.00766 1.27156 -0.309202 0 29 128 1 
-0.863808 1.26255 -0.340058 0 29 128 1 
1.17217 0.734254 -0.159972 0 170 0 255 
1.0678 0.925547 0.183888 0 170 0 255 
1.25902 1.04721 0.053459 0 170 0 255 
1.28196 1.89575 0.119035 0 170 0 255 
1.304 2.03602 0.0727108 0 170 0 255 
1.12446 1.4927 0.402352 0 170 0 255 
-0.830075 1.91066 0.0839429 0 29 128 1 
1.19551 0.565089 -0.069351 0 170 0 255 
0.545576 1.49578 0.617556 248 31 63 255 
1.18956 1.49811 0.411834 0 170 0 255 
1.35612 1.8243 0.310908 0 170 0 255 
0.997631 2.04159 0.281237 0 170 0 255 
1.47896 1.8821 0.0981076 0 170 0 255 
-0.867096 1.28843 0.627901 0 29 128 1 
-1.00147 1.63987 0.55414 0 29 128 1 
1.00682 0.978306 0.080167 0 170 0 255 
0.977286 1.18759 0.144636 0 170 0 255 
1.42332 2.00791 0.245126 0 170 0 255 
-1.02174 1.98196 0.112117 0 29 128 1 
-1.00347 1.92863 -0.164672 0 29 128 1 
1.21731 1.69294 0.420821 0 170 0 255 
1.54169 1.95506 -0.101171 0 170 0 255 
-1.03038 1.69285 0.493785 0 29 128 1 
1.15957 0.656614 -0.0279717 0 170 0 255 
1.05438 1.45474 0.369095 0 170 0 255 
-1.09142 1.75916 -0.116206 0 29 128 1 
-0.89922 1.18526 0.00435841 0 29 128 1 
0.996195 1.52989 0.275614 0 170 0 255 
-1.022 0.864769 -0.372299 0 29 128 1 
1.42988 1.13171 0.12677 0 170 0 255 
1.44583 2.02582 0.184849 0 170 0 255 
1.4059 2.18975 0.253389 0 170 0 255 
1.23069 1.01742 0.0491058 0 170 0 255 
1.43669 2.07808 0.198106 0 170 0 255 
-0.791415 1.88053 -0.132846 0 29 128 1 
1.16244 1.13174 0.34345 0 170 0 255 
-0.994023 1.68312 0.209088 0 29 128 1 
-0.991901 2.23221 0.147623 0 29 128 1 
0.938203 0.931481 0.293741 0 170 0 255 
1.43419 1.58431 -0.148389 0 170 0 255 
1.17446 0.614899 -0.142706 0 170 0 255 
-0.980547 2.32345 0.0689355 0 29 128 1 
-0.90221 1.37497 0.700076 0 29 128 1 
0.994069 1.56928 -0.0094417 0 170 0 255 
1.14978 1.40156 0.0902848 0 170 0 255 
-0.750668 1.48845 -0.0974033 0 29 128 1 
-0.874566 0.812793 -0.311661 0 29 128 1 
1.30776 1.72774 -0.181922 0 170 0 255 
1.13172 1.76847 0.368112 0 170 0 255 
1.28734 1.72273 0.331802 0 170 0 255 
1.48279 1.70779 -0.322999 0 170 0 255 
1.2109 0.501393 0.0951971 0 170 0 255 
1.01098 1.6315 0.378404 0 170 0 255 
-1.00117 2.67348 0.0641635 255 63 63 255 
1.0388 1.52599 -0.00626037 0 170 0 255 
-1.16542 1.36917 0.0264769 0 29 128 1 
1.15994 0.668201 0.00997049 0 170 0 255 
-0.77045 1.73396 0.120446 0 29 128 1 
-1.97755 1.84492 -2.04305 255 63 63 255 
1.22927 2.03253 0.189009 0 170 0 255 
0.937876 2.06218 0.288033 0 170 0 255 
1.02557 2.1643 0.0561444 0 170 0 255 
1.25239 1.34858 0.353192 0 170 0 255 
1.41656 1.16581 0.126159 0 170 0 255 
-0.952355 1.92467 -0.243063 0 29 128 1 
-0.955139 1.00387 -0.213503 0 29 128 1 
-0.822559 2.0147 -0.0690374 0 29 128 1 
-0.952364 1.46469 -0.273664 0 29 128 1 
-0.952218 1.77308 -0.207548 0 29 128 1 
1.21089 1.17354 -0.025574 0 170 0 255 
-0.869808 1.64914 0.19251 0 29 128 1 
0.949461 1.72501 0.326659 0 170 0 255 
1.12062 1.30433 0.0283369 0 170 0 255 
1.36853 1.23604 0.26488 0 170 0 255 
1.00875 0.994662 0.168585 0 170 0 255 
1.44649 2.03425 0.0384197 0 170 0 255 
-0.913315 0.987867 -0.22943 0 29 128 1 
-1.06108 1.91956 0.194215 0 29 128 1 
1.20435 1.89005 0.269667 0 170 0 255 
-1.0113 1.53483 0.582495 0 29 128 1 
1.3663 1.82345 -0.205274 0 170 0 255 
1.39886 2.19592 0.297699 0 170 0 255 
1.36487 0.967532 0.0305922 0 170 0 255 
1.33103 2.06868 -0.0141993 0 170 0 255 
1.17142 0.641473 0.145055 0 170 0 255 
0.523398 1.44665 0.602338 248 31 63 255 
1.25965 1.74825 0.371197 0 170 0 255 
1.17345 2.00605 0.257822 0 170 0 255 
1.25218 1.27499 0.0486156 0 170 0 255 
1.41924 1.71752 -0.116312 0 170 0 255 
1.26087 2.06643 0.207415 0 170 0 255 
-1.05639 1.71018 -0.164826 0 29 128 1 
1.3189 1.65581 0.00160325 0 170 0 255 
1.4516 2.11822 0.166116 0 170 0 255 
1.41691 1.95488 0.259407 0 170 0 255 
-0.862265 0.801765 -0.342678 0 29 128 1 
0.981346 1.13621 0.0866218 0 170 0 255 
1.09661 1.22122 0.354229 0 170 0 255 
-1.04088 1.37638 0.148362 0 29 128 1 
1.18855 0.599843 -0.0332715 0 170 0 255 
1.20286 2.04119 0.24129 0 170 0 255 
-0.864713 1.11361 -0.205665 0 29 128 1 
1.3503 1.60011 0.353366 0 170 0 255 
1.22272 1.92548 0.264227 0 170 0 255 
-0.846907 1.70064 -0.202733 0 29 128 1 
-0.889689 1.33551 0.129877 0 29 128 1 
1.28918 2.02178 -0.0797968 0 170 0 255 
-1.10778 1.24252 0.110655 0 29 128 1 
-0.975689 2.22941 0.160045 0 29 128 1 
1.18645 0.499367 -0.106962 0 170 0 255 
-1.78518 1.93777 -2.05267 255 63 63 255 
1.31663 1.7572 0.24782 0 170 0 255 
-0.92044 2.02697 0.113788 0 29 128 1 
-0.919895 2.05681 0.132764 0 29 128 1 
1.0987 1.17127 0.35183 0 170 0 255 
-0.939735 2.24539 0.191994 0 29 128 1 
0.89817 2.08887 0.184711 0 170 0 255 
-0.963042 0.536631 -0.287116 0 29 128 1 
1.54041 1.83004 0.0197009 0 170 0 255 
1.00476 1.22962 0.0522503 0 170 0 255 
1.18595 0.658202 -0.146003 0 170 0 255 
1.22213 1.4496 0.13807 0 170 0 255 
-1.0473 1.43188 -0.215764 0 29 128 1 
-0.845008 1.70869 -0.203394 0 29 128 1 
-1.0102 0.936135 -0.28225 0 29 128 1 
-0.853603 2.12515 0.00531077 0 29 128 1 
-0.924798 0.322048 -0.300399 0 29 128 1 
1.02102 2.26346 0.0569028 0 170 0 255 
-0.893634 2.04646 -0.064511 0 29 128 1 
-0.904174 0.647737 -0.394032 0 29 128 1 
1.1762 1.84417 0.266273 0 170 0 255 
1.20543 0.960624 0.2309 0 170 0 255 
-1.04757 1.25555 -0.0761481 0 29 128 1 
-0.896167 0.907894 -0.388088 0 29 128 1 
1.16724 1.11693 0.340046 0 170 0 255 
1.33661 1.31708 0.173399 0 170 0 255 
1.10748 1.74851 0.211067 0 170 0 255 
-1.01251 1.61663 0.541582 0 29 128 1 
-0.907241 1.41426 0.603446 0 29 128 1 
1.38516 1.64125 0.165662 0 170 0 255 
1.21549 0.820044 0.188734 0 170 0 255 
-0.770879 1.85237 0.024461 0 29 128 1 
1.39762 1.80378 -0.226514 0 170 0 255 
1.24396 1.83081 -0.0708378 0 170 0 255 
1.15124 0.778726 0.0208975 0 170 0 255 
-0.990264 1.13875 -0.347514 0 29 128 1 
-1.08868 1.68809 -0.10191 0 29 128 1 
-0.895802 0.870426 -0.397576 0 29 128 1 
-0.914186 0.285314 -0.274553 0 29 128 1 
-0.996315 1.05495 -0.353358 0 29 128 1 
1.24545 0.79807 -0.0458522 0 170 0 255 
1.3418 2.06887 -0.0171854 0 170 0 255 
1.2859 2.06928 -0.101597 0 170 0 255 
-0.976339 0.66929 -0.402137 0 29 128 1 
-1.14294 1.52252 -0.0361524 0 29 128 1 
-1.06906 1.71249 -0.138363 0 29 128 1 
1.02645 0.607049 -0.114566 0 170 0 255 
1.30911 0.72452 0.162948 0 170 0 255 
1.16166 1.73818 0.496246 0 170 0 255 
-1.7822 1.95974 -2.05153 255 63 63 255 
-1.06009 1.40511 0.137881 0 29 128 1 
-0.784004 1.88238 -0.16158 0 29 128 1 
-0.789398 1.73684 -0.142276 0 29 128 1 
1.23446 1.69484 -0.106891 0 170 0 255 
-1.01343 1.26556 -0.262772 0 29 128 1 
-1.09824 1.37398 -0.172563 0 29 128 1 
1.24512 1.87313 0.330251 0 170 0 255 
-1.03682 1.53734 -0.203901 0 29 128 1 
1.5451 1.57277 -0.342422 0 170 0 255 
1.31906 0.977082 0.255767 0 170 0 255 
1.00052 1.34686 0.145712 0 170 0 255 
1.12548 1.33075 0.38077 0 170 0 255 
-1.10989 1.69654 0.0625794 0 29 128 1 
-1.05717 1.77035 0.348275 0 29 128 1 
0.914444 1.18497 0.325307 0 170 0 255 
1.03012 2.18335 0.118334 0 170 0 255 
1.42989 1.68594 0.218778 0 170 0 255 
1.38351 0.950143 0.222977 0 170 0 255 
-0.921608 1.56909 0.533218 0 29 128 1 
-0.880294 1.21689 0.0267982 0 29 128 1 
-1.09422 1.87577 0.158207 0 29 128 1 
-1.11622 1.62333 0.032287 0 29 128 1 
1.00168 1.53665 -0.0162627 0 170 0 255 
1.54997 1.63842 -0.163557 0 170 0 255 
1.17956 1.03779 -0.0807456 0 170 0 255 
1.1913 1.77452 0.383171 0 170 0 255 
1.25674 1.98269 0.652196 0 170 0 255 
-0.93132 1.12712 0.0669498 0 29 128 1 
-0.942267 2.1029 0.132746 0 29 128 1 
-0.906892 1.70915 0.505664 0 29 128 1 
1.34146 1.26523 0.278293 0 170 0 255 
0.863539 1.96095 0.225939 0 170 0 255 
1.28328 2.07828 -0.0856846 0 170 0 255 
1.27867 1.92415 -0.135429 0 170 0 255 
1.52407 1.94053 -0.0310625 0 170 0 255 
1.25053 2.15843 0.210256 0 170 0 255 
1.038 1.47452 0.201812 0 170 0 255 
1.08152 1.36033 0.0767755 0 170 0 255 
-0.988975 2.73436 0.0367767 255 63 63 255 
-0.957408 1.96207 -0.185857 0 29 128 1 
1.25711 2.30543 0.215086 0 170 0 255 
1.30792 1.92108 -0.134279 0 170 0 255 
-0.783978 1.83009 -0.329971 0 29 128 1 
1.33627 1.46592 0.289668 0 170 0 255 
1.1498 0.818116 0.062807 0 170 0 255 
0.940943 1.1627 0.251011 0 170 0 255 
-0.929582 2.01107 0.111589 0 29 128 1 
-0.979445 2.72221 0.0854348 255 63 63 255 
1.21012 1.31472 0.349852 0 170 0 255 
-0.905775 2.15088 -0.0365564 0 29 128 1 
-1.09963 1.15247 0.0618539 0 29 128 1 
-1.06183 1.85516 0.291771 0 29 128 1 
-0.960091 1.76199 -0.206535 0 29 128 1 
1.43011 1.98484 0.229939 0 170 0 255 
-1.11803 1.30394 0.0903902 0 29 128 1 
-0.974908 0.725281 -0.415772 0 29 128 1 
1.07582 0.380273 -0.171913 0 170 0 255 
-1.06131 1.72016 0.178388 0 29 128 1 
0.992944 1.53563 0.2954 0 170 0 255 
1.01804 1.12459 0.345143 0 170 0 255 
-0.878866 0.918297 -0.362841 0 29 128 1 
-0.918224 0.563425 -0.267358 0 29 128 1 
1.08233 1.42391 0.100917 0 170 0 255 
1.36069 1.69724 -0.0659689 0 170 0 255 
1.2631 1.18019 0.338358 0 170 0 255 
-0.992803 2.21617 0.147679 0 29 128 1 
-0.944454 0.953942 -0.231781 0 29 128 1 
-0.942192 1.05542 -0.189234 0 29 128 1 
-1.08379 1.09916 0.0338298 0 29 128 1 
-1.02319 2.3088 0.0628412 0 29 128 1 
-1.02852 0.940827 -0.33964 0 29 128 1 
-0.85268 1.20466 0.63729 0 29 128 1 
1.01984 0.608459 -0.120913 0 170 0 255 
1.29266 1.49021 0.363648 0 170 0 255 
0.970331 1.37605 0.268085 0 170 0 255 
-1.11004 1.24369 0.10792 0 29 128 1 
-0.978382 1.08968 0.0879688 0 29 128 1 
1.12249 0.927517 0.200139 0 170 0 255 
-1.01711 1.63393 0.194955 0 29 128 1 
0.949356 1.92654 0.184674 0 170 0 255 
-0.956853 2.25611 0.18117 0 29 128 1 
1.45512 2.09603 0.137197 0 170 0 255 
1.24678 1.89183 0.195459 0 170 0 255 
0.994976 1.44428 0.34468 0 170 0 255 
1.12651 0.802819 0.00458696 0 170 0 255 
-0.867436 0.858745 -0.34055 0 29 128 1 
-0.885362 1.21232 0.642787 0 29 128 1 
-0.899557 0.379246 -0.317142 0 29 128 1 
-0.967568 1.74949 0.283386 0 29 128 1 
-1.01519 0.973028 -0.27942 0 29 128 1 
-0.817121 1.99146 -0.0659993 0 29 128 1 
1.67934 1.71899 -0.325181 0 170 0 255 
1.21556 1.57325 0.0852457 0 170 0 255 
1.25913 0.924399 0.0465533 0 170 0 255 
1.21578 1.04503 -0.0685025 0 170 0 255 
1.19929 0.794193 0.185535 0 170 0 255 
-0.798446 1.35943 -0.10133 0 29 128 1 
1.37927 1.05982 0.293815 0 170 0 255 
-0.987883 2.05732 -0.0622268 0 29 128 1 
0.987434 1.03768 0.0917991 0 170 0 255 
1.23778 0.679921 0.170634 0 170 0 255 
-0.861456 1.10416 -0.214621 0 29 128 1 
1.21983 2.06657 0.142757 0 170 0 255 
-0.803045 1.91737 -0.00463694 0 29 128 1 
1.39378 2.09017 0.0257127 0 170 0 255 
-0.879235 2.14318 -0.0103008 0 29 128 1 
1.15808 1.67638 -0.0537922 0 170 0 255 
-0.877786 0.322648 -0.247309 0 29 128 1 
0.614396 1.43954 0.619711 248 31 63 255 
-1.05365 1.79864 0.344741 0 29 128 1 
-1.14634 1.50916 0.0468174 0 29 128 1 
0.973968 1.10915 0.180142 0 170 0 255 
1.06874 1.05869 -0.09441 0 170 0 255 
-0.918833 1.80605 0.370106 0 29 128 1 
1.08956 1.22727 -0.0200644 0 170 0 255 
1.10432 1.03398 0.305251 0 170 0 255 
1.34096 1.35164 0.212455 0 170 0 255 
1.46253 1.88029 0.204144 0 170 0 255 
1.46508 2.05959 0.111804 0 170 0 255 
0.930495 2.09901 0.198504 0 170 0 255 
-0.876748 1.23036 0.0665839 0 29 128 1 
1.45143 1.79867 0.242172 0 170 0 255 
1.3206 1.09961 0.313821 0 170 0 255 
1.06294 0.736995 -0.047159 0 170 0 255 
1.27877 1.8023 0.232051 0 170 0 255 
-0.898805 1.6534 0.546617 0 29 128 1 
-0.901472 1.8004 0.31784 0 29 128 1 
1.48313 1.96669 0.138387 0 170 0 255 
1.10151 1.039 -0.0996842 0 170 0 255 
1.03848 0.777861 -0.0593964 0 170 0 255 
1.12497 0.715511 -0.0401329 0 170 0 255 
1.23606 1.91577 0.321749 0 170 0 255 
-0.914259 1.71007 0.226662 0 29 128 1 
1.20289 0.962435 0.0159129 0 170 0 255 
1.29294 1.35172 0.335593 0 170 0 255 
1.27387 2.13485 0.15629 0 170 0 255 
-0.746113 1.59148 0.0144639 0 29 128 1 
1.22947 0.598587 0.173205 0 170 0 255 
-1.05993 1.51276 0.146805 0 29 128 1 
1.0691 1.00351 0.280353 0 170 0 255 
1.15487 1.59357 0.423164 0 170 0 255 
-1.08869 1.73499 -0.0988919 0 29 128 1 
1.16686 2.00462 0.295564 0 170 0 255 
-0.986679 1.95027 0.153154 0 29 128 1 
0.921768 1.1357 0.281217 0 170 0 255 
0.484028 1.42243 0.620484 248 31 63 255 
0.918404 2.0884 0.285465 0 170 0 255 
-0.813259 1.94134 -0.159133 0 29 128 1 
1.35709 1.67299 0.388628 0 170 0 255 
1.3801 1.25346 0.227711 0 170 0 255 
-0.932045 1.0059 -0.400635 0 29 128 1 
1.46895 1.71004 0.109085 0 170 0 255 
-0.931239 1.14118 -0.151514 0 29 128 1 
1.21098 1.28768 0.0381107 0 170 0 255 
-1.03849 1.31318 -0.193015 0 29 128 1 
1.40212 1.92758 -0.23506 0 170 0 255 
0.992475 1.352 0.377209 0 170 0 255 
-0.949261 1.40645 0.164046 0 29 128 1 
1.24129 1.7539 0.423554 0 170 0 255 
1.46801 1.7888 -0.149397 0 170 0 255 
1.2983 1.71211 0.341184 0 170 0 255 
1.51016 1.59416 -0.316716 0 170 0 255 
-0.899112 1.90383 0.174349 0 29 128 1 
1.48268 1.59604 -0.221505 0 170 0 255 
1.25117 1.03056 0.296617 0 170 0 255 
-0.918719 2.06966 0.135495 0 29 128 1 
1.44744 1.68544 0.179908 0 170 0 255 
0.914003 1.79543 0.228781 0 170 0 255 
1.6011 1.68353 -0.381679 0 170 0 255 
-0.780491 1.71829 0.130419 0 29 128 1 
1.50062 1.69113 -0.359915 0 170 0 255 
0.933514 0.835457 0.291011 0 170 0 255 
1.25374 1.83827 -0.0621967 0 170 0 255 
1.31839 2.0235 0.251711 0 170 0 255 
-1.00637 2.71005 0.00963622 255 63 63 255 
-0.955186 0.64452 -0.2819 0 29 128 1 
-0.786395 1.38625 -0.0664958 0 29 128 1 
1.23364 0.582516 0.173802 0 170 0 255 
1.15222 1.67302 0.0139464 0 170 0 255 
0.916072 1.84499 0.221718 0 170 0 255 
1.34694 1.63671 0.142706 0 170 0 255 
1.20184 1.95205 0.147099 0 170 0 255 
0.922507 1.24071 0.362367 0 170 0 255 
1.4016 1.72381 -0.276297 0 170 0 255 
1.41581 1.74836 -0.284069 0 170 0 255 
1.36169 0.836735 0.163341 0 170 0 255 
-1.13494 1.57805 0.0663061 0 29 128 1 
-0.890445 1.63186 0.196306 0 29 128 1 
1.27702 1.79409 0.157221 0 170 0 255 
-0.891046 0.730384 -0.354697 0 29 128 1 
1.46494 1.74594 -0.15288 0 170 0 255 
1.41011 1.73516 -0.281377 0 170 0 255 
1.15795 0.590483 -0.0280535 0 170 0 255 
1.00606 0.950851 -0.00706065 0 170 0 255 
-1.09048 1.43873 -0.182189 0 29 128 1 
1.21774 0.934915 0.210006 0 170 0 255 
-0.969986 1.60466 0.478556 0 29 128 1 
1.08993 1.46042 0.109614 0 170 0 255 
-0.939697 2.32385 0.109496 0 29 128 1 
1.47643 1.69513 0.0138602 0 170 0 255 
1.14837 1.70447 0.116947 0 170 0 255 
1.39092 1.65095 0.108402 0 170 0 255 
-0.938147 1.3781 0.71363 0 29 128 1 
-0.922761 1.43283 -0.292511 0 29 128 1 
1.35405 1.2506 0.272174 0 170 0 255 
1.39666 1.68271 0.206519 0 170 0 255 
1.32097 1.79107 -0.153901 0 170 0 255 
-0.871702 1.63755 -0.203515 0 29 128 1 
1.66115 1.66689 -0.340954 0 170 0 255 
1.02394 1.54704 0.382851 0 170 0 255 
-1.0034 2.13685 0.103297 0 29 128 1 
1.22152 1.87271 -0.00571316 0 170 0 255 
1.39477 1.84162 0.306472 0 170 0 255 
-0.782156 1.7739 -0.126466 0 29 128 1 
-0.824506 1.91308 -0.218284 0 29 128 1 
1.0999 0.39883 -0.148775 0 170 0 255 
1.17657 0.508625 0.0605682 0 170 0 255 
-0.980342 1.75071 0.264508 0 29 128 1 
1.38815 0.926078 0.0519555 0 170 0 255 
-0.915254 1.32498 -0.360512 0 29 128 1 
1.21285 1.91209 0.254206 0 170 0 255 
1.3855 1.22064 0.130518 0 170 0 255 
-0.842661 1.69972 0.185229 0 29 128 1 
1.44091 1.0075 0.250592 0 170 0 255 
-0.749184 1.63331 0.0496359 0 29 128 1 
1.40016 2.14728 0.352813 0 170 0 255 
1.24155 2.05257 0.126787 0 170 0 255 
-0.940041 0.561233 -0.264496 0 29 128 1 
1.49957 1.69305 -0.0628539 0 170 0 255 
-0.733371 1.6065 -0.0320235 0 29 128 1 
-0.905167 0.879854 -0.279388 0 29 128 1 
1.22917 2.1274 0.194117 0 170 0 255 
-1.04127 2.26208 0.103752 0 29 128 1 
-1.07396 1.92739 -0.067737 0 29 128 1 
-1.06889 1.77166 -0.154695 0 29 128 1 
-1.05191 1.25108 -0.0689945 0 29 128 1 
1.35155 1.79828 -0.20353 0 170 0 255 
-0.904782 1.48325 0.668035 0 29 128 1 
0.881247 1.09907 0.352001 0 170 0 255 
-0.778823 1.83551 0.0683782 0 29 128 1 
1.22415 2.01243 0.0654225 0 170 0 255 
0.977574 1.40513 0.283379 0 170 0 255 
-1.02778 0.890419 -0.334901 0 29 128 1 
-0.807527 1.41572 0.0671408 0 29 128 1 
-1.11253 1.2414 0.00335157 0 29 128 1 
-0.951455 1.34007 0.697309 0 29 128 1 
-0.853225 2.21345 0.0813941 0 29 128 1 
0.860079 2.05905 0.227536 0 170 0 255 
1.31659 1.70697 0.343203 0 170 0 255 
1.37788 1.65393 0.108781 0 170 0 255 
0.925382 1.19715 0.291883 0 170 0 255 
-0.82715 1.862 0.123813 0 29 128 1 
-1.07051 1.43232 0.135554 0 29 128 1 
-1.05368 1.12336 -0.030763 0 29 128 1 
-1.01168 1.71376 0.215695 0 29 128 1 
-1.02724 0.863512 -0.352781 0 29 128 1 
-0.908731 1.83191 0.295376 0 29 128 1 
1.5689 1.85926 -0.0293274 0 170 0 255 
1.21477 1.87955 0.0748385 0 170 0 255 
-0.88982 1.75174 0.233144 0 29 128 1 
-1.0287 1.96624 0.122811 0 29 128 1 
1.24092 0.801423 -0.0512592 0 170 0 255 
1.27093 0.491871 0.103175 0 170 0 255 
0.98713 1.01988 0.0101827 0 170 0 255 
1.10747 1.26056 0.365828 0 170 0 255 
1.23575 2.02116 0.303402 0 170 0 255 
-0.956618 1.11593 -0.0240279 0 29 128 1 
-1.1126 1.23464 0.0461909 0 29 128 1 
1.3461 1.67906 -0.0949839 0 170 0 255 
1.01704 0.58108 -0.131474 0 170 0 255 
-1.9267 1.96862 -2.04981 255 63 63 255 
-1.04354 1.74065 0.451777 0 29 128 1 
-0.833777 1.68661 -0.202824 0 29 128 1 
-0.896543 2.06177 -0.0843907 0 29 128 1 
1.26576 1.90911 0.129428 0 170 0 255 
0.910159 0.840917 0.299538 0 170 0 255 
-0.937972 1.57509 -0.229641 0 29 128 1 
-0.953041 1.39631 0.617554 0 29 128 1 
0.942857 1.11517 0.25784 0 170 0 255 
1.35726 2.16265 0.1917 0 170 0 255 
-1.1662 1.4053 -0.0677271 0 29 128 1 
1.29436 1.6327 0.391779 0 170 0 255 
1.2965 2.0649 -0.095805 0 170 0 255 
1.54608 1.65288 -0.139128 0 170 0 255 
1.1506 1.73461 0.473884 0 170 0 255 
-0.818028 2.0316 -0.0512589 0 29 128 1 
0.957611 1.74517 0.340292 0 170 0 255 
-0.790698 1.91366 -0.133799 0 29 128 1 
1.04316 1.48312 0.192837 0 170 0 255 
1.28849 1.87673 0.13432 0 170 0 255 
-1.16656 1.41354 -0.0711887 0 29 128 1 
1.22432 1.74039 -0.0829073 0 170 0 255 
-0.90071 1.87307 0.231884 0 29 128 1 
1.53505 1.82142 -0.0175942 0 170 0 255 
-1.10886 1.76046 -0.0430822 0 29 128 1 
-1.05014 1.50925 0.15474 0 29 128 1 
0.939109 1.8314 0.30829 0 170 0 255 
-0.911367 1.74663 0.437042 0 29 128 1 
-1.00505 1.50445 0.571918 0 29 128 1 
-1.14002 1.58849 0.0442989 0 29 128 1 
-0.821743 2.03209 -0.0589368 0 29 128 1 
-0.813122 2.0126 -0.0207307 0 29 128 1 
-0.906574 1.96753 0.118756 0 29 128 1 
-0.970717 1.10289 -0.179544 0 29 128 1 
-0.974844 1.39498 0.653677 0 29 128 1 
1.08791 1.2991 0.374124 0 170 0 255 
1.21023 1.77523 0.21646 0 170 0 255 
-1.0798 1.26116 0.132437 0 29 128 1 
-0.976681 1.89435 -0.192474 0 29 128 1 
1.17592 0.551427 -0.15296 0 170 0 255 
-0.840642 1.22897 -0.176297 0 29 128 1 
-0.847977 1.09202 -0.243805 0 29 128 1 
-0.98388 1.66609 0.209076 0 29 128 1 
1.10427 0.885663 0.118615 0 170 0 255 
-1.0468 1.54593 0.160819 0 29 128 1 
1.30109 1.29418 0.31102 0 170 0 255 
-1.06182 1.66328 -0.183446 0 29 128 1 
1.01699 0.931223 -0.075736 0 170 0 255 
-1.08957 1.41884 -0.184558 0 29 128 1 
1.4647 1.03079 0.215701 0 170 0 255 
1.13036 1.36506 0.392593 0 170 0 255 
1.11737 0.90885 -0.132653 0 170 0 255 
0.983141 1.59645 0.269017 0 170 0 255 
1.38832 1.87368 0.25982 0 170 0 255 
1.31128 0.951689 0.0586286 0 170 0 255 
-1.80111 1.90274 -2.05347 255 63 63 255 
1.23906 1.83812 -0.0910497 0 170 0 255 
1.13137 1.7656 0.39714 0 170 0 255 
-1.04274 1.72965 0.40471 0 29 128 1 
1.4722 1.59481 -0.171318 0 170 0 255 
-0.986761 2.2964 0.131157 0 29 128 1 
1.42799 1.76656 0.258351 0 170 0 255 
1.16847 0.65048 0.0362244 0 170 0 255 
-0.934404 1.91307 0.217418 0 29 128 1 
1.01158 0.928255 -0.0140512 0 170 0 255 
-0.858197 0.973815 -0.275631 0 29 128 1 
-1.07433 1.18292 -0.0220219 0 29 128 1 
1.39495 1.9131 -0.0723237 0 170 0 255 
1.04229 0.740801 -0.07521 0 170 0 255 
1.25692 1.75216 0.341512 0 170 0 255 
-1.01407 1.60088 0.490399 0 29 128 1 
-0.955251 1.27975 0.684719 0 29 128 1 
1.00403 1.02424 -0.0574961 0 170 0 255 
0.943668 0.817006 0.313044 0 170 0 255 
1.26824 2.1374 0.11672 0 170 0 255 
1.46142 0.951816 0.119352 0 170 0 255 
1.39365 1.05845 0.0660054 0 170 0 255 
1.01817 1.76334 0.322835 0 170 0 255 
-0.791648 1.49179 -0.227266 0 29 128 1 
1.23381 1.46541 0.157136 0 170 0 255 
-0.912566 1.22363 -0.0623879 0 29 128 1 
1.29785 1.29895 0.143582 0 170 0 255 
-0.85541 2.11104 0.00658056 0 29 128 1 
-1.1548 1.47918 -0.0479178 0 29 128 1 
1.3549 2.17258 0.177461 0 170 0 255 
1.33555 1.75849 -0.161357 0 170 0 255 
1.03282 0.944777 -0.0994567 0 170 0 255 
0.970813 2.04619 0.24072 0 170 0 255 
1.25804 1.94664 0.0912932 0 170 0 255 
1.63443 1.64677 -0.370996 0 170 0 255 
-1.10598 1.86661 -0.0264541 0 29 128 1 
1.29435 0.798169 -0.0161107 0 170 0 255 
1.18217 1.92333 0.281889 0 170 0 255 
-1.07725 1.13119 0.0966727 0 29 128 1 
-1.10007 1.41946 -0.178526 0 29 128 1 
-0.880217 0.526158 -0.326567 0 29 128 1 
1.25501 1.86117 0.173614 0 170 0 255 
1.38804 1.1099 0.294222 0 170 0 255 
-0.907384 2.32015 0.0891933 0 29 128 1 
-0.863675 1.26036 -0.0413575 0 29 128 1 
-0.904615 1.66535 0.516725 0 29 128 1 
-0.882454 1.95078 -0.212565 0 29 128 1 
-1.11649 1.71578 0.090584 0 29 128 1 
1.28027 1.47979 0.182989 0 170 0 255 
-0.887159 1.19679 0.666103 0 29 128 1 
-0.813127 2.096 0.00677317 0 29 128 1 
1.02019 1.71291 0.374748 0 170 0 255 
1.56261 1.75232 -0.391841 0 170 0 255 
1.39214 1.70161 0.224249 0 170 0 255 
-1.0175 1.2619 -0.252573 0 29 128 1 
1.20667 1.00563 -0.0168723 0 170 0 255 
-1.88594 1.91334 -2.04703 255 63 63 255 
1.1448 0.624594 -0.0598736 0 170 0 255 
1.29893 2.01953 -0.138191 0 170 0 255 
1.21016 1.23251 -0.00762603 0 170 0 255 
1.22273 1.71063 -0.0253077 0 170 0 255 
0.939639 1.75744 0.243108 0 170 0 255 
-0.84264 1.21341 -0.199253 0 29 128 1 
-1.13837 1.53045 0.0585267 0 29 128 1 
-0.912678 1.16135 0.0644272 0 29 128 1 
0.933523 2.03489 0.260513 0 170 0 255 
1.42465 1.83244 -0.313681 0 170 0 255 
-0.831051 2.06467 -0.00467044 0 29 128 1 
-0.776592 1.65322 0.113801 0 29 128 1 
-1.10867 1.48858 -0.147129 0 29 128 1 
1.30186 0.856265 0.202275 0 170 0 255 
-0.904872 2.06254 0.121694 0 29 128 1 
1.26811 1.69183 0.438236 0 170 0 255 
-0.989751 1.5176 -0.239668 0 29 128 1 
-0.823004 2.03884 -0.0392685 0 29 128 1 
1.34616 2.13051 0.255047 0 170 0 255 
-1.04021 2.65753 0.0314927 255 63 63 255 
1.19532 1.73636 0.44676 0 170 0 255 
1.02901 0.965582 -0.0957574 0 170 0 255 
1.25602 1.78549 -0.0517139 0 170 0 255 
1.22099 1.02857 0.0315921 0 170 0 255 
1.57151 1.66349 -0.366172 0 170 0 255 
1.23443 1.52127 0.14558 0 170 0 255 
1.33092 2.12132 0.164284 0 170 0 255 
-0.997525 1.93304 0.187251 0 29 128 1 
0.948645 1.8927 0.196649 0 170 0 255 
1.23741 1.0486 0.312119 0 170 0 255 
1.30826 2.31417 0.203922 0 170 0 255 
-0.832663 1.27408 -0.129851 0 29 128 1 
1.20681 0.575721 -0.109951 0 170 0 255 
-0.905802 1.17188 -0.14583 0 29 128 1 
1.17252 1.69899 0.0620582 0 170 0 255 
0.858329 2.09832 0.177898 0 170 0 255 
1.26048 0.92384 0.226511 0 170 0 255 
-0.869043 2.15527 0.113312 0 29 128 1 
1.38248 1.20419 0.261553 0 170 0 255 
-0.983289 1.4383 0.618999 0 29 128 1 
1.40089 2.16174 0.361727 0 170 0 255 
-0.915132 1.3952 0.152147 0 29 128 1 
-0.887498 1.85841 0.210613 0 29 128 1 
1.34362 1.36292 0.286393 0 170 0 255 
-0.928451 1.46934 0.572708 0 29 128 1 
-1.11993 1.25468 0.0773322 0 29 128 1 
1.36563 1.94006 -0.0397299 0 170 0 255 
-0.763751 1.70297 0.103751 0 29 128 1 
1.09364 0.823577 0.0089317 0 170 0 255 
1.0507 0.579549 -0.169873 0 170 0 255 
0.906461 0.820321 0.323707 0 170 0 255 
-1.02396 2.24554 0.127266 0 29 128 1 
1.29889 1.90583 0.118134 0 170 0 255 
1.14251 1.25565 0.364317 0 170 0 255 
1.24107 1.87834 0.187064 0 170 0 255 
-0.981446 1.68933 -0.214286 0 29 128 1 
-1.02861 0.930912 -0.341276 0 29 128 1 
1.28111 1.82215 0.203933 0 170 0 255 
-0.917468 2.26268 -0.0142058 0 29 128 1 
0.998346 1.32273 0.131277 0 170 0 255 
1.22827 1.81593 0.284844 0 170 0 255 
-0.871092 1.00558 -0.348881 0 29 128 1 
1.60226 1.72302 -0.20114 0 170 0 255 
1.29053 0.51112 0.0221195 0 170 0 255 
-1.0043 1.74637 0.331829 0 29 128 1 
-0.90538 1.61281 0.196448 0 29 128 1 
-1.03847 1.70868 0.450262 0 29 128 1 
-0.930515 1.09861 -0.377704 0 29 128 1 
-0.932629 1.25127 0.644591 0 29 128 1 
1.32502 1.68463 -0.0725703 0 170 0 255 
-0.910419 1.79522 0.351532 0 29 128 1 
1.05067 2.20069 0.113544 0 170 0 255 
1.16448 0.67312 0.0269777 0 170 0 255 
0.986168 1.1696 0.362025 0 170 0 255 
1.17377 1.66214 -0.00381988 0 170 0 255 
-0.901706 1.41548 0.631193 0 29 128 1 
1.48856 1.75996 -0.168228 0 170 0 255 
-0.970565 1.49764 0.553229 0 29 128 1 
1.20736 1.91948 0.139466 0 170 0 255 
-0.91872 2.11858 -0.0485181 0 29 128 1 
1.16898 1.63216 0.415299 0 170 0 255 
1.02864 1.13194 -0.0337018 0 170 0 255 
-1.00283 0.629687 -0.331823 0 29 128 1 
-0.977076 1.76335 0.488409 0 29 128 1 
1.44892 1.69328 0.0424221 0 170 0 255 
-1.07297 1.81402 0.277062 0 29 128 1 
1.6682 1.66529 -0.362834 0 170 0 255 
1.27954 0.551216 0.146455 0 170 0 255 
-0.916005 1.61229 0.531459 0 29 128 1 
1.09629 0.581196 -0.0552049 0 170 0 255 
-0.822818 1.68797 -0.192672 0 29 128 1 
0.915054 1.6807 0.298784 0 170 0 255 
1.48846 1.94764 0.107492 0 170 0 255 
1.16491 0.569969 0.135013 0 170 0 255 
1.40908 1.76703 0.28225 0 170 0 255 
-0.778058 1.40857 -0.0396605 0 29 128 1 
1.56202 1.86086 -0.0386567 0 170 0 255 
-1.77114 1.90286 -2.0552 255 63 63 255 
1.0883 1.05719 0.318274 0 170 0 255 
1.16701 1.48645 0.406104 0 170 0 255 
1.03849 1.6948 0.375933 0 170 0 255 
1.23552 1.8342 -0.108083 0 170 0 255 
-1.0968 1.56756 0.120501 0 29 128 1 
-0.976127 2.05522 0.110641 0 29 128 1 
-0.888878 2.23122 0.132089 0 29 128 1 
1.492 1.74141 -0.175774 0 170 0 255 
-0.996984 1.40042 -0.271701 0 29 128 1 
1.06488 0.916748 0.118184 0 170 0 255 
1.3187 0.804959 0.174289 0 170 0 255 
1.07583 1.5349 0.400463 0 170 0 255 
1.38953 2.0959 0.0455887 0 170 0 255 
1.02291 1.23076 0.36159 0 170 0 255 
-0.768906 1.47751 0.0102244 0 29 128 1 
1.50733 1.64375 -0.355528 0 170 0 255 
-0.875301 1.01462 -0.240246 0 29 128 1 
1.22782 1.27488 0.0347391 0 170 0 255 
1.20002 1.11067 -0.0608238 0 170 0 255 
-0.873096 1.25136 -0.0571739 0 29 128 1 
1.33779 1.38768 0.213052 0 170 0 255 
1.07148 0.879986 -0.120246 0 170 0 255 
1.15798 1.32023 0.373092 0 170 0 255 
0.628516 1.46344 0.621969 248 31 63 255 
-1.01317 1.05574 0.0235643 0 29 128 1 
-0.870143 0.926551 -0.288647 0 29 128 1 
1.43201 1.97793 0.228314 0 170 0 255 
0.982716 1.10132 0.0993444 0 170 0 255 
-1.10197 1.56153 -0.112862 0 29 128 1 
1.06415 1.4719 0.367291 0 170 0 255 
-1.01633 2.28223 -0.00691473 0 29 128 1 
-0.923683 0.646964 -0.288652 0 29 128 1 
1.16389 1.77718 0.435158 0 170 0 255 
1.33606 1.86127 0.203432 0 170 0 255 
1.5884 1.62662 -0.26041 0 170 0 255 
1.44662 1.83187 0.224623 0 170 0 255 
1.31261 2.0576 -0.106806 0 170 0 255 
1.04052 1.61344 0.238694 0 170 0 255 
1.45193 1.09246 0.222851 0 170 0 255 
-0.92164 1.73219 0.334417 0 29 128 1 
1.00463 0.993082 0.255398 0 170 0 255 
0.977568 1.1395 0.144534 0 170 0 255 
1.25807 1.86596 0.130374 0 170 0 255 
0.908136 0.982323 0.297752 0 170 0 255 
-1.01013 1.61148 -0.203588 0 29 128 1 
1.11129 1.19132 -0.0374482 0 170 0 255 
-0.962823 2.1969 0.166838 0 29 128 1 
1.22604 1.86705 0.175639 0 170 0 255 
1.08225 1.52306 0.382007 0 170 0 255 
1.44185 1.70327 0.229867 0 170 0 255 
1.3228 0.528046 0.101761 0 170 0 255 
1.15849 0.83406 -0.138211 0 170 0 255 
1.35101 1.30087 0.176069 0 170 0 255 
1.08015 0.806629 -0.00802922 0 170 0 255 
1.25706 0.812084 0.203535 0 170 0 255 
-0.865817 1.24724 0.0223939 0 29 128 1 
-0.969428 1.2078 -0.0813439 0 29 128 1 
1.51486 1.62629 -0.130936 0 170 0 255 
1.50051 1.72936 0.0269392 0 170 0 255 
-0.973289 0.488417 -0.347642 0 29 128 1 
1.21444 1.07238 -0.0263701 0 170 0 255 
-0.867357 1.65129 -0.199004 0 29 128 1 
1.09646 0.484822 -0.114752 0 170 0 255 
1.07201 1.45661 0.122078 0 170 0 255 
1.45679 1.81647 -0.314632 0 170 0 255 
1.25671 1.58544 0.394198 0 170 0 255 
1.34723 1.3284 0.24661 0 170 0 255 
1.20054 0.858585 0.181514 0 170 0 255 
-0.824235 1.39174 -0.260908 0 29 128 1 
1.46018 1.8111 0.173746 0 170 0 255 
1.52989 1.93216 0.0211967 0 170 0 255 
-1.0965 1.82634 -0.101356 0 29 128 1 
-0.906195 1.93691 0.142914 0 29 128 1 
-1.05926 1.06934 0.0145716 0 29 128 1 
1.00807 1.2336 0.364138 0 170 0 255 
0.966844 1.9421 0.223317 0 170 0 255 
0.599356 1.47215 0.611112 248 31 63 255 
1.06424 1.45686 0.367322 0 170 0 255 
1.03088 0.972447 0.233555 0 170 0 255 
1.3471 2.00243 0.267852 0 170 0 255 
-0.96211 1.10122 -0.371624 0 29 128 1 
1.27504 2.13843 0.147357 0 170 0 255 
-0.989318 1.60247 0.574772 0 29 128 1 
1.35373 0.693538 0.099514 0 170 0 255 
-0.986085 1.27949 0.159249 0 29 128 1 
1.17348 0.578527 0.0643425 0 170 0 255 
1.07102 1.38318 0.0953069 0 170 0 255 
1.1803 1.60802 0.416734 0 170 0 255 
1.21624 1.86697 0.332498 0 170 0 255 
-1.00782 1.19613 -0.304984 0 29 128 1 
-1.06206 1.47886 -0.198309 0 29 128 1 
1.47654 1.74898 0.0958006 0 170 0 255 
-1.90984 1.90621 -2.0453 255 63 63 255 
-1.01953 0.947025 -0.295789 0 29 128 1 
-1.11885 1.60851 0.0134624 0 29 128 1 
1.00041 1.56108 -0.0065254 0 170 0 255 
1.05996 1.01332 -0.105582 0 170 0 255 
-1.13921 1.54584 0.00626299 0 29 128 1 
-0.926476 1.73272 0.248356 0 29 128 1 
1.10676 1.10411 0.336708 0 170 0 255 
0.876927 0.972857 0.351319 0 170 0 255 
1.57437 1.77946 -0.393184 0 170 0 255 
-0.748282 1.64735 0.0494506 0 29 128 1 
1.26354 1.78373 -0.0243417 0 170 0 255 
1.46669 0.927571 0.153535 0 170 0 255 
1.38036 1.9126 -0.11127 0 170 0 255 
1.19842 1.96078 0.198286 0 170 0 255 
1.19184 1.96721 0.269739 0 170 0 255 
1.39148 1.02464 0.062016 0 170 0 255 
0.914655 0.997942 0.304198 0 170 0 255 
1.4238 1.79363 -0.193339 0 170 0 255 
-1.04039 1.3168 -0.202669 0 29 128 1 
-1.04654 1.87366 0.284518 0 29 128 1 
-0.865979 1.25169 -0.342571 0 29 128 1 
-0.937828 1.21701 0.133704 0 29 128 1 
-0.764246 1.82406 -0.345246 0 29 128 1 
-0.990488 1.58592 0.58287 0 29 128 1 
1.07435 0.982106 0.270446 0 170 0 255 
1.06766 2.04205 -0.426496 0 170 0 255 
0.840961 2.06418 0.194398 0 170 0 255 
0.937888 1.82893 0.206612 0 170 0 255 
1.35639 1.8318 0.303317 0 170 0 255 
1.12475 1.39171 0.398847 0 170 0 255 
1.33625 1.83577 0.225923 0 170 0 255 
1.19085 1.23431 0.353487 0 170 0 255 
-0.841558 1.89987 0.111468 0 29 128 1 
-0.845037 1.9626 0.0554484 0 29 128 1 
1.03631 0.710249 -0.0987659 0 170 0 255 
-1.03041 1.74787 0.464121 0 29 128 1 
1.54357 1.82208 -0.0122935 0 170 0 255 
-0.868947 2.12627 0.112443 0 29 128 1 
1.34639 1.87063 0.22925 0 170 0 255 
-1.84683 1.88144 -2.04965 255 63 63 255 
0.981431 1.13486 0.0764642 0 170 0 255 
-1.03197 1.96657 -0.100254 0 29 128 1 
1.42178 2.01457 0.250726 0 170 0 255 
0.98576 1.10026 0.0225229 0 170 0 255 
1.26109 2.11626 -0.0842279 0 170 0 255 
-0.969054 1.43535 0.664801 0 29 128 1 
-1.01253 1.33261 0.15905 0 29 128 1 
0.975294 1.35198 0.221807 0 170 0 255 
1.35494 0.755909 0.0178848 0 170 0 255 
1.21487 1.67329 0.414749 0 170 0 255 
-0.795773 1.37429 -0.192186 0 29 128 1 
-1.15447 1.38649 0.0376568 0 29 128 1 
1.08614 0.543763 -0.0808346 0 170 0 255 
-1.04609 1.78238 0.239359 0 29 128 1 
0.963455 1.72471 0.237816 0 170 0 255 
-1.01998 0.768558 -0.356537 0 29 128 1 
1.42237 1.6957 0.00475889 0 170 0 255 
-0.928132 0.889225 -0.409507 0 29 128 1 
-0.925037 0.300021 -0.238401 0 29 128 1 
-1.04199 1.72659 0.467837 0 29 128 1 
1.21962 1.92237 0.21903 0 170 0 255 
1.4449 1.67126 0.151054 0 170 0 255 
-0.891734 0.938535 -0.381492 0 29 128 1 
1.42439 1.68319 0.0591121 0 170 0 255 
1.50246 1.9569 0.0414005 0 170 0 255 
1.46278 1.55558 -0.200148 0 170 0 255 
1.60128 1.62892 -0.218173 0 170 0 255 
1.05414 0.941526 0.200255 0 170 0 255 
1.23812 1.80692 0.238082 0 170 0 255 
1.34295 2.03491 0.323652 0 170 0 255 
